# 3D point list with one line of data per point:
#   POINT3D_ID, X, Y, Z, R, G, B, ERROR, TRACK[] as (IMAGE_ID, POINT2D_IDX)
# Number of points: 339, mean track length: 5.2112174493656802
400 0.56854245777612378 2.3469386922987305 2.0898379789715813 228 211 174 0.57420372652831209 17 553 95 242 41 629 55 420 7 563
397 0.82409576288998787 2.274394478071847 2.2203586092061953 232 216 180 0.32686426673125707 17 527 46 707 95 454 41 603 97 175 51 381 30 165 90 357 9 741
396 0.97522282500279234 2.2701538909789525 2.2252994884976243 229 213 178 1.0514311990073753 17 521 95 227 41 598 29 140 55 406 7 683 64 618 24 802 26 645 60 1003 53 570 15 776 93 784 82 261 34 308 6 38 78 33 54 320 68 779 59 28 44 846 86 458 28 705 18 694 70 699 84 748 42 534 99 634 75 631 89 463
394 0.36510838486675046 2.2324983028015679 2.2803345519606069 229 212 174 0.23611939216861647 17 500 41 592 55 370 7 496 26 487 64 419 60 836
393 0.42699126646414731 2.2107380500776626 2.309307232453981 231 214 177 0.1789965937832993 17 490 41 579 7 492 26 485 60 831
390 0.32992608191170686 2.192958039434203 2.331814641854117 230 212 174 0.31387638428697578 17 476 41 572 51 358 90 130 98 308 46 642 83 343 9 652 91 582 55 357 7 473 87 606 26 463 60 814
389 1.0133002759352154 2.2137968605365117 2.3454716526178134 232 217 181 0.099904868332254329 17 494 41 570 95 211 97 160
388 0.91401098092897359 2.1984253528509474 2.3649406517964091 234 218 182 0.067179559059771826 17 481 95 206 41 561 97 158
387 0.91401098092897359 2.1984253528509474 2.3649406517964091 234 218 182 0.067179559059771826 17 480 95 205 41 560 97 157
386 1.0671676990017311 2.1898822092027994 2.3442899321287385 230 215 180 0.27761039742492089 17 483 41 554 46 697 95 204
385 1.067232462640977 2.1909476191825354 2.353075946386892 230 215 180 0.45420905904113024 17 482 46 696 95 203 41 553 97 154 9 745 7 555 26 536 60 872
384 -0.27094832238688488 1.9978362575207986 1.5811246936701373 85 80 22 0.97960393233185272 46 447 41 539 51 332 36 463 90 479 55 202 7 167 79 419 87 142 94 139 40 487 13 327
383 0.32487861666875606 2.0848503023834515 2.4402549625951253 233 216 177 0.60057514700353609 17 459 41 536 30 123 90 322 46 637 98 289 83 316 91 356 9 641 55 334 7 455 87 580 94 567 40 918 93 535 18 430 70 403 42 324
382 -0.062147936445093227 1.9216717911282697 1.6856711921446943 100 90 26 0.27577588662836866 17 448 41 524 97 92 83 278 55 180 64 418
381 -0.062041273164336996 1.9203866895328734 1.6864802846158577 100 90 26 0.38556022051564054 17 447 41 523 97 91 83 277 91 314 9 345 55 181 7 345 27 36 85 30 67 48
379 -0.11847895218869348 1.7282603312377645 1.4905868645755007 95 88 25 0.37836690493154551 95 409 41 510 97 344 36 291 29 391 64 405
378 -1.1844889851676721 2.9056241737962938 1.767313262842831 86 90 84 1.7793701046483621 17 371 95 343 41 446
377 -1.1844889851676721 2.9056241737962938 1.767313262842831 86 90 84 1.7793701046483621 17 370 95 342 41 445
376 -0.90025132258420348 2.7712896818245691 1.49638630022856 71 77 73 0.1655695901388774 17 351 41 439 29 323 33 176
375 -0.93372254208535943 2.8149641889182377 1.6635704141456111 71 77 73 1.284246961269867 17 350 41 438 64 288
374 -0.83377535534069502 2.6664230534311715 1.3197267009925289 81 87 83 1.771023342955347 95 309 41 431 97 248 51 419 83 542 46 853 98 362
373 -1.2830327419765237 2.6624343491258147 1.6059913334876716 76 80 73 0.29021832813444026 95 297 41 418 97 238 36 218
372 -1.1757639375638147 2.6369133467002603 1.5617928386481275 115 118 110 1.4642509952496041 17 325 41 416 33 167 81 189 29 312
371 -1.2285581850663496 2.5936320187124089 1.6797529863398954 122 123 113 0.14468629817837203 17 315 95 282 41 404 97 224 29 298
370 -0.23055263258268319 2.5856370741411938 1.733155605317745 5 6 6 0.16875519456678637 95 283 41 394 29 247
369 -1.4730058571133775 2.5031911527162372 1.876771746245649 194 186 159 0.20309766055259454 17 298 41 385 95 265 29 288
368 -1.4383324017961097 2.495741038613525 1.8601993353686295 194 184 157 0.10686069849118358 17 297 95 264 41 384
367 -1.4383324017961097 2.495741038613525 1.8601993353686295 194 184 157 0.10686069849118358 17 296 95 263 41 383
365 0.16643516346721512 2.5247076712359555 1.7394777306332376 25 17 14 0.20765441502700044 17 308 41 379 64 236
364 -1.374660280137227 2.4768457145009051 1.891105232576064 133 131 121 0.1865415567871864 17 292 41 376 64 507 34 453 6 454 78 459 54 502 43 398 82 373
363 0.084638421051610582 2.4001628747682138 1.8432997972351233 2 2 4 1.0865835865960694 95 252 41 346 77 387
362 0.61472619013116525 2.4174981989148372 1.9272621340511982 107 76 66 0.33035877667982738 46 260 41 341 91 212 9 244 13 273
361 -0.028570929452785776 2.3670497255245233 1.8233031202020844 62 71 94 0.38273438523649767 17 279 41 340 51 377 46 216 36 357 30 166 97 188 90 342 98 331 79 161 3 148 27 122 85 94 50 253 67 252
360 0.58947301413849473 2.4010752924448617 1.9144222046189088 112 82 72 0.081472827353055638 95 253 41 338
358 -0.42147782396176359 2.0342444087452343 1.445833325924806 161 172 201 0.11514289534826948 17 219 41 300 29 126
357 0.38705390490749825 2.1534819211476166 2.386171140763687 116 103 77 0.22783516240544865 17 248 95 181 41 297 97 144 51 153 36 133 30 133 90 121 98 306 83 332 79 338 50 130
356 0.47282640860308811 2.1366109279105618 2.4161636227027925 109 100 81 0.12882056376603507 17 241 95 177 41 288 97 136 51 151 36 132 30 132
354 0.94989445992670984 2.1207155323040241 3.0674084433534676 232 217 181 2.5105794778361328 17 220 41 268
353 0.69736306208841292 2.0747773861590924 2.4998092160261489 234 218 181 0.14567377337474005 17 222 95 159 41 262 51 140 90 111
352 0.69820651412208412 2.0748875462403658 2.5046230414729131 234 218 181 0.1480068856322673 17 223 95 160 41 261 51 141
351 0.76807719381316431 2.0562584762820424 2.5681696270189835 231 217 180 0.0051519266994119071 17 215 41 253
349 0.88219548733520725 2.0138504241068396 2.6034055023952605 232 218 181 0.33123427034733316 17 204 41 238 55 171 64 359 15 606 24 680
348 0.88403742751488068 2.0127821298983952 2.5993313924133208 232 218 181 0.29037708977913457 17 203 41 237 55 170 46 487
347 0.62629110954858036 1.9815152857109088 2.5776934097600637 233 218 180 0.23595777627443595 17 191 41 231 51 119
346 0.56883048757335686 1.9304007684788309 3.3405717915298117 232 216 178 2.3439248572691116 17 159 41 219
345 -0.099693099847878441 1.7552978238099977 1.4705385635128623 100 113 144 0.20211800530944099 95 66 41 178 97 65
344 0.43825727976316364 1.3040430291043981 1.4505769557838391 128 116 39 0.2776262220510729 95 30 41 49 97 27 51 15
343 0.45557558405970439 1.1635691825642085 1.4237960989806733 112 90 20 0.11168243739931667 17 27 41 35 97 16
342 0.45734095725177443 1.1615483301535925 1.4354312014515025 112 90 20 0.18458464974005964 17 26 41 34 97 17 29 364
341 0.30178750865246307 1.1496901855602355 1.4779299344555952 27 27 31 0.36037513134089311 95 20 41 33 36 8 30 6 64 12
340 0.4204840719961388 1.1267752179288084 1.4880760417180914 107 85 18 0.11617385636359896 17 21 41 30 64 322
339 0.4204840719961388 1.1267752179288084 1.4880760417180914 107 85 18 0.11617385636359896 17 20 41 29 64 323
338 0.15253686628437543 0.7859265769809296 1.8746190989682143 130 112 38 1.4149498144583752 17 966 95 832 41 1045 97 725 36 639 30 654 29 821
336 -1.2457122360497348 2.7129846371108624 1.5530242186999044 125 128 120 1.2542663637898377 17 904 95 775 51 645 36 596 30 624 90 639 46 844 98 609 83 540 91 569 9 624 55 522 64 811 82 636 43 671 34 765 77 784
334 -0.03532216574994744 1.2294118612754927 1.9103551738324385 0 0 0 0.34364443969106168 17 871 95 743 41 859 97 632
333 0.11852962999535038 1.1687716121594396 1.8630345613473398 164 148 89 0.24539439358248433 17 868 95 741 41 972 97 630
332 -0.120652680558825 1.4282413527140836 1.9745760427599361 154 129 52 0.31220667720577822 17 817 95 702 41 944 97 592 51 566 36 441 30 533 90 458
330 -1.264788807251751 2.6446068416086601 1.6182447409396634 86 89 84 0.41439329107042355 17 774 95 664 41 828 97 555 36 499 29 629 64 665 60 720 82 383 34 463 6 475 78 461 54 503 43 393 1 215 59 461
329 -1.2030529070189933 2.6230348227779476 1.6472832114421974 84 88 81 0.45750875926042411 17 769 95 661 41 825 97 554 36 497 29 625 64 662 82 377 34 456 6 465 78 452 54 497 59 448 21 630
327 -1.0708810506082131 2.57802204700493 1.6853071802124453 69 73 67 0.23856700756520288 17 761 95 656 41 819 97 549
325 -1.2329170046297755 2.649816383720152 1.6275907519267401 71 75 69 0.43405219559454594 17 605 95 521 41 688 97 450 51 409 36 391 30 393 90 370 29 495 55 241 64 524 60 545 53 184 33 318
324 -1.1699753585146595 2.6305971396932049 1.655824280319917 69 74 68 0.20935281756953597 17 602 95 517 41 682 97 445 51 405 36 386 30 388 90 366 85 243
323 -1.1709726729419485 2.6300106475106215 1.6590113209467832 69 74 68 0.16150548063391187 17 603 95 516 41 683 97 446 51 406 29 489
322 -1.1108805930325927 2.610730767117754 1.694751891963713 65 69 63 0.11871028709276314 17 596 95 514 97 440 36 383 30 386
321 -1.1103897532125171 2.6100755035943202 1.6904653861884711 65 69 63 0.13308943063459436 17 595 95 513 41 679 97 441
320 0.21570248190329641 2.4069530536143851 1.9036591424514355 212 197 161 0.73592921080235385 17 569 95 483 41 649 97 402 33 80
319 0.077313602589099667 0.98444389925523323 1.7868136045976206 46 47 52 0.20605477936972463 17 392 95 376 97 307
318 0.077313602589099667 0.98444389925523323 1.7868136045976206 46 47 52 0.20605477936972463 17 391 95 375 97 306
317 -1.1268969651879339 2.6303715197564079 1.6595107672190461 107 110 101 0.066363259898299984 17 322 95 291 97 231
316 -1.2899321664663876 2.6130121029792885 1.6457445346009099 131 131 122 0.16750662781174838 17 319 95 289 41 409 97 229 29 491
315 0.081498965649854843 1.9292029747615085 1.9848154654771857 88 57 9 0.30019752299319469 17 176 95 106 97 97 51 335 30 90 36 90 90 312 98 82 83 287 27 211 85 182
314 -0.34879013860819214 1.5041703157650481 1.9000371515873826 32 34 43 0.19759982607787627 17 60 95 49 41 490 97 326 51 293 36 276 30 289 90 265
313 0.10727211975356368 0.97890851194860129 1.8169328002436416 138 117 37 0.28937149970098991 17 9 95 7 97 9
312 0.12002103527337007 0.94295431480953928 1.7251355781956632 1 1 2 0.92299817105005122 17 4 95 1 41 472 97 4 29 361 64 555 53 389 60 760 82 405 34 492 6 494 78 492 54 523 43 441 88 441 68 736 32 833 1 247 59 240 11 524 21 318 45 512 33 209 77 252 58 2 48 171 47 306
311 0.73651905360918257 2.5825758708668802 2.0112750504745489 0 0 0 1.4399840468450014 17 984 95 859 41 1063 51 724 90 719 98 753 29 845 4 546
310 -0.056439236584944749 2.1512332288186347 1.6919979508670155 3 4 4 1.3577737123273395 17 983 95 858 41 1062 55 665 7 830 64 892 87 979 26 789
308 -0.95233175800013092 2.8403019200574504 1.3255637749383526 117 121 113 2.1753890346211402 17 985 95 855 41 1059 97 751 51 720 46 984 36 675 30 686 90 715 98 750 83 772 91 801 9 927 29 847 55 664 7 829 64 895 26 787 60 1166 53 785 82 771 34 850 78 843 54 872 1 569 59 811 21 837 65 644 47 783
307 0.94259112113444987 2.171066166217595 2.3742582747893164 160 151 125 1.6942640447377326 17 980 46 983 95 851 40 1303 87 977 15 851 24 949 70 771 42 629 84 859
306 0.94916989692903497 2.1806880602752585 2.4660135326515085 160 151 125 0.58431232860034932 17 979 46 982 95 850
305 -0.21210633436681489 1.6508007484001364 1.6729528470785944 138 92 25 1.0769918913030505 17 978 95 848 41 1054 36 665 30 680
304 -0.77988783909148562 3.0429447775484206 1.250124765078964 0 0 0 1.4187290870687197 17 976 46 975 95 845 41 1051 97 744 51 716 36 670 30 679 90 709 98 746 83 767 9 918 29 835 55 652 87 963 40 1285 33 636 48 498 81 592 18 863 23 772
303 -0.85907970562525038 2.488555560443098 1.395591254808852 6 9 13 0.53204063549017278 17 975 95 844 41 1049 97 743 41 1050 36 669
302 0.32681976500433207 2.3654898678773288 2.0140984165220024 211 197 163 2.0169746630041798 17 974 95 843 97 742 30 675 90 706 77 811
301 0.083667397750285283 1.8185783144532324 1.9844917900613186 97 74 16 1.9260461528731312 17 971 95 840 97 728 55 658 7 826
300 -0.36836119242714482 1.239138582663643 1.9456526341122082 0 0 0 0.62688132063330804 17 969 95 838 51 710
299 0.48771289258973877 1.0601445894382078 1.547424109159601 135 115 36 0.55520588536669102 17 968 95 837 97 736
298 -0.074310237598229315 0.97368662511748216 1.7662608551817054 0 0 0 1.3554883570823877 17 967 95 836 46 957 97 735 51 708 36 650 30 669 7 818
297 -0.68413661846661378 2.5432203596383731 1.5540165272345279 48 58 81 1.6294530372462579 17 965 95 835 41 1043 97 733 30 677 90 705 83 761 91 790 9 912 46 967
296 -0.67599903594966082 2.53739334089618 1.5335590637048644 48 58 81 1.8806463872928845 17 964 95 834 41 1044 97 732 51 714 30 676 90 704 83 762 91 791 9 913 29 818 79 635 77 820 13 645 27 514 50 505 67 515
295 0.2451785153433669 2.4238189203401452 1.8962370624153062 199 182 146 1.8447590102359024 17 957 46 955 95 831 41 1035 97 722 51 700 36 649 30 660 98 729 97 731 83 747 33 606 27 485
294 0.24247638246434502 2.4274646558079831 1.9054433118945815 199 182 146 1.4771855105546139 17 956 46 956 95 830 41 1034 97 721 51 699 36 648 30 659 98 728 83 746 33 605
293 -0.069892413167242498 2.3553792226695807 1.7996717837681551 35 46 69 1.9418307030389759 17 955 95 828 41 1018 46 924 51 705 36 656 30 668 90 697 98 738 55 611 29 800 33 622
292 -0.21779859279127645 1.3882491717948369 1.9349096180139764 0 0 0 1.0557612114651325 17 953 95 825 41 1030 97 702 51 693 36 632 30 648 90 683
291 0.55889606870710429 1.3876150880434022 1.5994045789736322 104 90 26 1.4423644658166794 17 936 95 824 41 1000 95 786 97 677 51 692 36 603 30 656 36 641 90 682 83 738 98 720 29 790 33 471 27 490
289 -0.32069134854452325 2.7270867498548599 1.609628488339188 35 27 24 0.44278409046722089 17 951 95 822 41 1024 91 751 9 877
288 -0.77369461758466374 2.6930605603459945 1.4019969536225401 5 5 6 1.6941257280658606 17 950 95 821 41 1025 97 714 30 653 29 806 33 610 81 579 4 530
286 -0.65274957957202617 1.9120239305050957 1.5503159388600145 254 215 55 1.0007959399215405 17 943 95 815 97 706
285 -0.25059158560028583 1.8780959938071791 1.6767469016689942 81 60 9 1.4021181149909747 17 942 95 814 41 1015 97 684 51 662 30 612 90 652 98 708 83 710 91 742 9 891 29 778 64 848 79 595
283 0.72530244454880477 2.3541110068189779 2.0670023979187975 58 41 35 0.86172683324084309 17 931 46 942 95 801 41 993 97 693 51 674 36 619 30 644 90 679 98 716 83 734 91 774 9 899 55 627 79 615 49 775 27 487 85 450 50 483 67 490
282 -1.1772683075454577 2.2347473845581116 1.6117759963510512 56 60 69 0.36046666903185259 17 899 95 799 97 709
281 -0.80813139684362822 2.1650112533496091 1.356877230364685 79 65 57 1.027693157053609 17 928 95 798 41 960 97 690 55 576
280 -0.44611625375963765 2.1004213403218706 1.4562688031338844 76 64 35 0.90591362261893049 17 927 95 795 97 688 29 786 33 587 58 510
278 -1.1994150287216931 1.8086637324011208 1.6041020916190831 132 110 27 0.81431621576322399 17 888 95 791 64 626
275 0.86616141954689363 1.2939909328172665 1.7218067648480901 167 110 21 1.1817535184401358 17 911 95 781 41 976 97 673 51 681 36 601 30 629 90 680 83 752 29 727 55 621 33 367 77 677 58 390 48 285 27 491
274 0.22896332002767586 1.2831054449319697 1.6962841778580611 158 146 90 0.32796269365868391 17 910 95 780 41 941
273 0.33043900217973704 1.2746671374391931 1.6212394754976784 64 45 12 1.0194544085689909 17 908 95 779 41 974 97 671 36 600 33 573 77 760 58 493 48 444 81 548
272 0.53110394135004568 1.2771539019035556 1.4436771962868644 101 89 25 0.29522133450891713 17 909 95 778 41 973 97 670 29 725
271 -0.64418096259693114 2.6011613077379674 1.5842489121092902 50 58 79 0.81581543436998805 17 903 95 774 41 964 97 697 51 676 36 626 30 646 90 661 98 695 83 695 91 726 9 853 79 572 77 783 13 560 49 683 3 539 27 425 85 425 50 409 67 408
270 -0.87565357141478473 2.4246907524800623 1.4482209967535313 10 9 5 0.68635937771276534 17 902 95 773 41 963 64 749 26 353
269 -0.73218490214615584 2.2709074465740851 1.3755481500889046 99 88 24 1.7159520427029211 17 930 95 770 97 710 36 587 36 615 30 617 30 640 77 794 58 534
268 -0.062712416002951479 2.1032948218112648 1.8163489062962821 25 18 5 0.47158590254086286 17 846 95 767 41 907
267 -0.99239856627667755 2.07637820830326 1.2761877804513291 152 0 0 0.20108161824488457 17 898 95 765 41 957 97 659
266 -0.077125834263387816 2.0204873805968742 1.9541572344452118 93 73 21 1.0111002306354624 97 657 51 638 36 614 30 615 90 630
265 -1.1010607317174927 2.0536419425616432 1.483951725880541 172 132 32 0.32662990210489823 17 893 95 762 41 990 97 658
264 -0.75750366090809362 1.9744097243440712 1.4974089107252984 250 208 63 0.36258558318326894 17 840 46 883 95 759
263 -0.16453992961093544 1.9378129217451008 1.7029435864607438 105 87 22 1.1265334827129194 17 891 95 757 41 954 97 651 51 581 36 527 30 547 90 566 98 593 83 514 77 702 58 332
262 -0.18090809152667159 1.8427311931146257 1.7390921996145883 72 52 9 0.36956951104453789 17 889 95 756 51 636 36 579 30 611 90 559
261 -0.86997014919570859 1.8252017835540557 1.6551105365321468 74 64 65 0.54356981139424487 17 920 95 755 97 650
260 -0.4327458539450203 1.7911508295366569 1.6713162421005989 48 35 6 0.098282099830951763 17 886 95 754 41 952 97 649 36 575 30 609
259 -0.11260955730717601 1.6610666834044419 1.5323147301546514 188 165 67 0.5649539985103218 17 919 95 753 97 680 95 790
258 -0.34522126013715404 1.4920616690380128 1.8945083496019248 70 60 58 0.3394419401627975 17 880 95 750 41 947 97 643 51 569 30 600 90 547 55 472 64 692
2484 -0.13651061143939516 1.6518248599010916 1.5685978334928063 102 85 21 0.4290566007357331 88 198 68 96 44 68
127 -0.92093371421272285 2.7526197126338539 1.4962826708964987 107 110 102 0.12018824694985386 17 346 95 323 97 266
2483 -0.41633249311307197 1.9006194089040418 2.714597636748751 234 220 181 0.19514895802945653 34 138 43 116 68 81 45 212 84 164
126 -0.92093371421272285 2.7526197126338539 1.4962826708964987 107 110 102 0.12018824694985386 17 347 95 322 97 265
2482 -0.55286561897254349 1.9191928518495798 2.6721106145769182 48 32 34 0.17830115351468578 88 190 68 66 44 91
125 -0.61451216017703536 2.7318692907529329 1.5065514748873474 70 81 83 0.3398948577019405 17 345 95 321 41 693 97 260
124 -1.2131069032246382 2.7042890701304581 1.5472725921218646 125 127 120 0.1897066431184759 17 338 95 312 41 427 97 254
2480 -0.83178355669531912 1.5255641733637761 1.3240873101957054 255 228 71 0.98889009486744817 6 552 34 673 78 565 54 612 43 524 88 636 55 293 26 424 60 956 53 605 68 805
123 -1.0545850468229006 2.7012208326677714 1.5649353347487249 116 118 107 0.15546668775207542 17 337 95 311 41 426
2479 0.2560916781699582 1.070942273192703 1.5488318841566355 16 20 27 1.0244072216331597 34 494 6 500 78 491 54 522 43 437 88 442 53 412 82 411 32 810 1 244 59 242 11 491 44 658 21 319 45 250 92 454 100 317 39 255 86 218 28 446 47 301 8 3 73 3
122 -1.154110972584496 2.6875118530974631 1.5879119744273815 120 122 113 0.14903252238754813 17 334 95 307 41 423
2478 -1.0502651843241253 1.5631042793120924 1.3010552994482127 255 234 72 0.35237159185486389 26 418 60 794 88 645 53 614 82 606 34 679 78 679 54 731 43 657 32 913 1 317 6 658 59 537 11 563 44 592 92 388 76 555 25 534 21 570 45 232 100 549 80 11 39 8 56 315 16 301
121 -1.1535547744657664 2.6866804014439718 1.5845160699494512 120 122 113 0.14750520989206894 17 333 95 306 41 422 97 249
2477 -1.0164479470890491 1.5940985760130748 1.2475642657433994 255 235 73 0.52048287642450219 64 723 82 608 34 681 6 659 78 681 43 655 88 646 26 598 60 963 53 617 68 792 1 432 59 648
120 -1.2518862982230867 2.6726474806871199 1.6064380921769768 121 124 117 0.31763281532289706 17 331 95 300 41 419 97 243 29 318 64 526 60 547 82 189 34 261 6 476 78 463 54 282 43 191 32 257 1 217 59 467 21 519 4 171 65 358
2476 -0.22479513699527831 2.712133300700684 1.5942208827000475 18 16 16 0.52733581393003848 54 192 43 117 88 226 6 181 53 181 59 362 44 490 92 267 21 427
119 -1.0879532281339956 2.6630788661587879 1.6018492658134367 114 116 106 0.11558999445635207 17 329 95 299 41 417 97 241
2475 0.62344626388518731 2.0022985226777643 2.6238474933376863 0 0 0 2.351692145777367 34 854 82 774
118 -1.0303923416356442 2.647703905507 1.6545796040460092 100 102 95 0.17044849322501282 17 324 95 294 41 415 97 232 29 301
117 -1.0270487894855511 2.6449332071052636 1.6395866770784218 100 102 95 0.067050320897464544 17 323 95 293 41 414 97 233
2473 -0.98661259111842436 1.7794567165267008 2.7641603666132539 0 0 0 1.5220029616938879 60 1175 88 793 68 1028
116 -0.27602916730310117 2.5991583534028821 1.7089750271848918 7 7 6 0.18756356842275995 17 600 95 288 41 399 97 438 29 255
115 -1.0658899727701763 2.6107715406729484 1.6892674435939035 96 98 90 0.098850980087974133 17 318 95 287 41 405 97 226
2471 -1.5068506121150338 2.2727015061871194 2.4090251764366659 0 0 0 0.51206106268827611 78 789 88 744 68 891
114 -0.65257048412918817 2.5753663697790237 1.522559015903981 59 68 91 0.3466692322725885 17 320 95 285 51 215 36 380 30 383 90 200 98 355 83 170 91 366 9 140 79 145 77 563 58 274 13 114 27 124 85 103
2470 -0.52013077041752709 1.8325394421728742 1.5650257012126449 20 17 19 0.37528758334132151 53 697 88 738 32 1073 76 653 25 659
113 -0.036637593765862134 2.5822062548716596 1.7340004915243408 50 37 32 0.65099540528896926 17 316 95 284 41 390 97 219 51 222 98 165 46 538 83 204 29 235 55 250 7 223 64 502 26 208 60 563 53 350 53 498 82 330 34 374 6 379 88 348 68 593 59 148 44 501 43 331 21 187 33 106 77 195 81 111 4 71
2469 -0.075545476462803546 1.6871127065399674 1.8833546517435373 156 125 42 0.35811787926527999 53 731 88 730 68 992 32 1064
112 -0.62022161668657105 2.5137662455349199 1.4979080297245302 61 69 92 0.17929116326992811 17 311 95 274 41 395 36 375 30 378 90 350 9 136 46 226
2466 -0.56875127170222983 1.7648658528082271 1.7879197977391861 255 220 65 0.94229743274712174 53 572 88 697 68 910 32 1078 11 730 92 736 86 708
109 -0.96659891328757463 2.4778750731483155 1.3718931630724249 52 53 63 0.2544617271883422 17 305 95 269 30 363
2465 -0.14987773166510499 1.7021914832831928 1.5291703634377485 205 177 60 0.078439896849459234 53 694 88 689 68 932
108 0.47674177754303459 2.4484910533396032 1.9379210616276146 106 75 64 0.20532767720407041 17 294 95 261 51 216
2464 -0.011866965751647368 0.85380943700438727 1.2309069352988014 167 180 214 3.1494815052124032 82 744 88 682
107 0.46281462680545837 2.4222937614072566 1.951913436269552 52 35 31 0.330710494922903 17 289 95 256 51 213
2463 0.10505033255528884 0.91131223104565662 1.7768808110084473 191 202 230 0.23975440587106156 43 681 82 643 88 671 68 937
106 0.0083462076107209092 2.4172110895022403 1.8944392383397939 52 64 91 0.18690655646414947 17 286 95 254 41 349 97 197 36 368 30 372 90 358 98 363 33 83 77 556 58 268 48 85
2461 -0.92614529258902567 1.5112443580805073 1.3521489923917487 255 236 71 0.025682973905700276 53 600 88 640
104 -1.0065604963024146 2.3577257751010574 1.3481770162141997 120 133 161 0.53561648649804938 17 282 95 246 97 394 36 136
103 0.16575270817260429 2.305083683461731 1.8658584127796445 2 3 4 0.96859726067485141 46 220 95 235 7 203 40 596 94 262
2459 -0.73172664406461152 1.5460791647942638 1.3144472739002753 255 237 71 0.23264831705448305 43 629 88 628 32 881 11 530 25 497 76 519 45 479
102 0.11777448234128859 2.273119730157489 1.8718157663908739 59 63 83 0.23973421340604023 17 271 95 231 51 175 83 158
2458 -0.76936208585315269 1.5136683653401701 1.3668493435340903 255 236 71 0.22072742767532694 43 631 88 626 68 813 32 991 11 541 45 488
101 0.14299549574541881 2.2614739784276803 1.8915806437901661 47 54 75 0.79317397726922978 17 269 95 225 97 520 51 518 36 483 30 499 90 506
2457 -0.67162694793655264 1.5278191825073579 1.3475463721094176 255 238 72 0.1487333834157317 82 581 88 620 68 822
100 -0.35560072441621088 2.2365956943232352 1.6454119644218483 7 5 3 0.13338237272496636 17 267 95 220 97 163
2456 -0.67162694793655264 1.5278191825073579 1.3475463721094176 255 238 72 0.1487333834157317 82 580 88 619 68 821
99 -0.28705530527019729 2.1787525033830626 1.7017553571119457 100 85 22 0.49592479640990134 17 484 95 193 9 123
2455 -0.70829869551421576 1.4924684686057275 1.3975908218004101 255 237 72 0.045518409863423974 82 576 88 617 68 817
98 0.38661145481084702 2.1551593429763574 2.3812068408871374 111 98 72 0.26313163927698402 17 247 46 491 95 182 41 296 97 145 51 152 30 134 90 120 98 305 83 331 91 367 9 474 55 199 7 361 64 119 79 337 87 241 94 263 40 598 26 170 60 509 13 212
2454 -0.12109669860887173 1.7012935282307087 2.9611544731325519 0 0 0 0.57610634858246323 43 601 88 574 68 726
97 0.37873711002476235 2.0618253391820445 2.478669744666584 236 218 179 0.3549242605513912 46 482 95 157 51 132 9 461 55 173 7 454
2453 0.79170469387627251 2.3970409430541064 2.0435227364032373 102 71 58 0.17712162363238648 53 591 88 571 68 878
96 -0.5064490227081887 2.0583399077516358 1.3862521199024167 255 217 60 0.66780941535747396 17 234 95 148 41 309 51 93 90 69 98 254 83 270 91 308 9 599 29 148 7 460
2452 -0.15845896154633959 2.684599076656462 1.6251614567183992 37 32 36 0.39414292235968085 34 569 88 510 44 639 21 689
95 -0.50504229827774616 2.062507272369154 1.3768023005868186 255 217 60 0.2522358919583883 17 233 95 147 41 310 97 115 51 94 29 149
1204 0.73542171848718663 1.1430025222711615 1.9855885858137621 173 114 32 0.50719163011131874 55 543 7 756 26 756 60 1101 53 754 82 700 43 721 88 718 32 1107 11 755 76 757 25 776 100 1026 39 721 31 674
1203 0.63237073161162249 1.0405397579436619 2.1288465935654957 179 125 39 0.76068088630554476 55 463 7 749 87 923 26 723 60 1099 53 721 43 723 82 698 88 717 32 1139 11 758 76 761 25 782
2450 -0.25099676978625318 1.7160841718688542 1.8327050944837429 149 118 41 0.19090119124659014 7 413 88 496 11 545
93 -0.87921969875462747 2.0415180083049065 1.1879736894510109 75 94 133 0.13623066254979344 17 225 95 140 41 313
1202 -1.1197373822710948 1.4950490354010353 1.3704668977462677 0 0 0 1.2492917811795146 55 596 7 748 87 842 94 727 40 1067 15 350 70 336
2449 0.12849573128130207 2.5475557948363177 1.7734115816246259 94 67 54 1.0664912015688963 78 550 88 494 68 730 44 652 92 629
92 -0.49592269382934767 2.0122173412107887 1.4479471179811387 244 204 57 0.10739771678527887 17 454 95 131 41 547 97 108
1201 0.48184369473165772 0.89192674746787592 2.3362713764875238 171 104 17 0.76338207528328972 55 539 7 747 87 917 94 892 40 1231 24 916 26 720 60 1096 53 717 15 822 93 852 82 695 88 715 18 785 13 614 70 733 23 763 99 645 75 666 89 488
2448 0.3938535377747347 2.4458808635367735 1.9419789686718587 90 58 46 0.092462810333817022 7 689 88 478 68 750
91 -0.66417236815082814 1.9994708733491466 1.5160912218196907 56 39 5 0.19981155701243522 17 202 95 127 41 289 51 80 97 365 98 246 91 76 9 87
1200 0.14887030571381882 1.8812483940160243 0.76206379003256752 90 100 100 2.1685790067072972 46 483 7 743
2447 -0.0020805908820133827 1.8837631978950662 2.7962413887440558 233 217 176 0.2825872344525045 43 475 54 567 88 451
90 0.81827611571597547 1.9241644128704516 2.7102265996794892 236 221 185 0.58023010881148418 17 175 46 476 95 119 41 218 51 109 98 285 83 311 64 353
1199 -0.84121025595218546 1.6835411116729011 1.1144350155123277 255 233 77 0.25876165065147072 55 558 7 719 26 694 60 1062
2446 0.73232711688680141 1.9826913037830287 4.4282583628707828 0 0 0 0.76547256171472156 7 403 26 243
89 -1.1351312784312642 1.9769952328743601 1.5753462839513828 132 97 18 0.32260824648251435 17 190 95 117 41 285 77 99
1198 0.31061806220374433 1.06192655969568 1.6023300391691155 102 80 24 0.53046175850288979 55 269 7 708 26 725 60 1102
2445 -0.10022186585862528 1.7531966162934554 1.4892864570515536 97 108 136 0.20950129403725418 53 324 88 342 68 323 32 391 11 42 44 281 92 40
88 -0.4689398807282632 1.9423839866408412 1.468715671926853 71 75 90 0.038783262250427282 17 182 95 100 97 94
1197 0.016866824236948508 0.81987665276087407 2.0099065647586296 0 0 0 1.7125290528884349 55 537 7 699 53 533 60 925
87 -0.62084831605523294 1.9313580618326356 1.5465397878242257 246 195 52 0.15483182654897118 17 445 95 99 97 93
1196 -0.65954244218513902 1.6219391645239924 1.2141956354063583 255 233 75 0.17708884046151305 55 485 7 633 26 622 60 986
2443 0.3269228394041237 2.6254222834022363 1.9582174352022832 133 88 65 0.57359732721249135 34 353 88 329 68 615
86 -0.11909520383541117 1.9136529635374822 1.7423677767241854 57 39 5 0.17143060659228562 17 172 95 98 97 90 51 79 36 82 30 78 90 299
2442 0.46855492952141997 2.4169182834697596 2.0339085150201783 214 197 160 0.11497551746471917 82 290 88 316 68 632
85 -0.034556737937546329 1.8967606355472955 1.6906358512220454 7 9 14 0.19527705623894231 17 164 95 95 41 233 97 84 51 323 30 310 36 304 90 294 98 249 83 267 27 197 85 160
1194 -0.59808312979085543 2.7859245829701575 1.356251059574157 108 76 60 0.31032751156890293 55 453 7 584 64 668 87 397 94 406 40 727 24 282 26 564 60 923 15 235 93 247
2441 -0.15477324898723069 1.8955218856514762 2.7771862442285107 231 215 176 0.23634331424178853 43 326 88 315 32 745 76 428
84 0.099238369029025178 1.8658169606474102 1.9678885459879816 85 57 8 0.22881979210959225 46 155 95 91 97 86 51 78 36 83 90 65 98 260 85 171
2439 -0.059304226152567474 1.9123940876033021 2.7563065833766927 230 214 176 0.15208301085572407 43 314 88 309
82 0.098447029270844838 1.8373231990621883 1.9411912325441889 109 90 23 0.18880351506050264 17 138 95 88 97 79 51 68 46 150 36 306 30 313 90 297 98 251 83 275 91 315 85 170
1191 -0.60916126122160152 2.736227742832416 1.5144646636384058 75 84 86 0.21653656426782278 55 447 7 570 87 563 94 544 40 894 24 475 26 651 64 759 60 1019 53 642 15 397 93 248 82 620 6 680 18 346
80 0.11978579261692884 1.8052045514247184 1.9323027747365085 80 57 10 0.25936221767883733 17 123 95 82 41 193 97 75 51 62 36 75 83 78
1189 0.63636488216157383 2.3368229364961448 2.1332572898861089 229 211 172 0.26032881611741737 55 417 7 559 94 699 87 724 40 1041 24 644
2436 -1.078537615388361 1.809632123866449 1.7692834014131138 252 230 69 0.1403464497601806 43 379 88 239 68 266
79 -0.21051088135836526 1.7728066826332844 1.7359683478783361 169 139 52 0.1621698116810345 17 110 95 77 29 92
1188 0.30243118681946574 2.2559750290178555 2.2575702892123339 227 209 166 0.050974598393135069 55 377 7 495 26 489 60 841
2435 -0.34883592015025827 2.6739059767864903 1.6339304642460299 80 91 94 0.22338953228152367 34 401 88 229 68 568
78 0.14185206468006925 1.7452288320381559 1.912343110712962 32 39 55 0.210454434839908 17 108 46 134 95 76 41 156 97 70 51 55 36 68 30 62 90 56 98 50 83 67 91 79 9 93 77 321 27 196 85 29
1187 0.88211404508783309 2.0123982618812635 2.6066452417917616 233 218 180 0.34539758782557456 9 659 7 463 64 358 87 696 94 680 40 1022
77 0.14204921851843777 1.7455186631585182 1.9119705430680083 32 39 55 0.20644635294591038 17 107 46 135 95 75 41 155 97 71 51 54 36 67 30 63 90 57 83 68 79 49 77 320 27 195 85 28
1186 -0.38023430480575604 2.0208397027891625 1.515419170760925 68 59 14 0.43413731108210291 55 356 7 458 87 536 94 511 40 871 24 264 60 688 53 165 15 39 93 238 82 137 18 598 49 564
2433 0.059155997283718162 2.5348945088800958 1.7803328601440664 37 32 35 0.088362913266900239 78 133 88 200 68 111 44 297
76 0.015023404675689484 1.7524749359896683 1.7165929914726881 27 33 46 0.10727440987395813 17 106 95 71 97 66
1185 -0.61129005002960435 1.6493524321141089 1.2452721826606188 250 203 58 0.32853295022854312 55 308 7 412 87 304 46 323
2432 -0.59127221036952549 1.9902641283527223 2.5639596341310154 64 46 39 0.37959237852147965 78 364 88 199 44 88 92 69
75 -0.45781329135069826 1.7614665309856663 1.6645065318907486 17 13 7 0.75484976706822171 17 104 95 70 41 186 90 280
1184 -1.1273306725525163 1.6273057436817755 1.2156224645682283 254 230 77 0.83754078833833834 55 70 7 399 87 471 94 453 40 808 24 420 26 270
2431 0.097938172632600365 1.347287226708682 1.5140658856488631 67 72 91 0.29746430391063761 53 124 88 178 68 600 11 249 44 505 15 241 92 59 45 8
74 -0.25852836302654014 1.6779413246615325 1.875101504757426 123 95 22 0.2166242920761916 17 95 95 64 41 125
1183 0.0069223337836422476 1.2595177383837097 1.9454221275797308 167 132 34 0.032260562732665074 55 275 7 396
2430 0.82722415675937944 1.8008100492735388 2.8706793146065337 0 0 0 2.4031320695785263 41 985 97 685 51 587 36 583 30 552 90 631 98 666 83 625 29 735 79 523 9 872 46 623 95 420 9 795
73 -0.97267467259208673 1.7002974170191008 1.0798758281304686 255 234 79 0.3805355201426035 17 93 95 59 41 174 51 33
1182 -0.84787533379104041 1.4453887941390637 1.4844787449382342 255 252 98 0.33486413039459667 55 283 7 393 64 595 87 756 94 731 40 1073 24 711 26 582
72 -0.87981922441024818 1.6435562105761727 1.180098452761025 255 228 79 0.61581846164831588 17 420 95 50 64 730 40 820 87 482 26 615 60 984 53 629 82 607 34 677 6 656 78 677 54 727 43 644 88 644 68 801 32 985 1 427
1181 0.86208536159628502 2.3555824728033721 2.0548639398627531 44 33 32 0.27994937167086614 55 233 7 380 87 465
2428 -0.42874613541663836 3.1297310321724301 2.4715798663603827 255 229 70 1.6640228086266304 54 231 43 137
71 -0.93904703291001534 1.5689439473837608 1.2845660650524902 253 234 79 0.26529465659751628 17 408 95 48 41 502 51 28 90 19
1180 0.14814554809517055 2.4866346500771548 1.9217584114636932 190 178 146 0.14704571398421848 55 237 7 374 64 225 94 434 40 767 24 199 26 199
2427 -1.2407601846677621 2.5990656197528179 1.6618567913222326 125 124 114 1.3858084576261696 17 766 95 660 41 922 55 519 64 758 82 633 34 701 6 695 43 552 64 516 6 593 78 616 54 679 1 372 47 603
70 -0.030278156421722685 1.4056007540627868 1.9570832148752533 28 27 34 0.17116375099993414 17 43 95 43 41 57 97 44 36 272 30 283 29 35
2426 0.64691915840299163 1.1059825063657847 2.0417637003848004 0 0 0 0.80600697051570369 7 753 26 754 60 1131 53 753 43 758 82 729 32 1137 11 780 76 759 25 778
69 0.28426751026671115 1.44126034742762 1.6563833895323803 20 16 12 0.34628146527289455 17 46 95 42 41 58 97 41 29 32 77 38
1178 0.22958323182172299 2.2298794787200222 1.8877287805096468 214 196 157 1.4973016608497551 55 402 7 370 82 303 6 99
68 -0.12821513644209817 1.2301024767723097 1.8544776396137121 34 31 29 0.43835525158572075 17 34 95 32 97 29 36 25 30 23
2424 0.1410540567912921 2.7441357248119345 1.4681925842515031 0 0 0 0.86619046606068151 78 846 43 809 59 812 70 774
67 -0.11094244325034722 1.2080132426286507 1.7658008820887341 19 26 39 0.20780105871068871 17 31 95 28 41 44 97 26 51 12 36 22 30 18 90 232
1176 -0.36129655410721545 2.0866306170454867 1.5054093741778101 63 54 37 0.73581143834298368 46 632 7 360 94 138
2423 -0.10824177970734314 1.7124205146524709 3.1737798290767967 0 0 0 1.7407830008692617 11 829 92 791 25 855 76 837 45 817 100 1092 80 855 84 860
66 0.31353528674103415 1.2438314104383896 1.6073233886763321 116 94 24 1.333427264064089 17 32 95 26 51 13 36 21 30 17 90 238
1175 -0.56556300260554704 2.0862518163941557 1.35590241144146 253 213 58 0.25374769959709398 55 217 7 358 64 478 29 158 87 113 94 100 40 445 26 335 60 715 82 346 53 503 34 390 6 386 78 380 59 146
65 0.45813065909904332 1.2400763662755183 1.426342815208028 139 124 43 0.10307212955565952 17 30 95 25 41 42 97 22
1174 -0.52726324528451418 2.0475861867939984 1.4205812944420602 251 211 56 0.12620475536250028 46 161 7 350 26 327 60 700 53 171 82 148 6 164
2421 -1.1865374573884202 2.8802579030937223 1.4243290000620863 0 0 0 0.31851022171768517 82 694 43 713
64 0.45813065909904332 1.2400763662755183 1.426342815208028 139 124 43 0.10307212955565952 17 29 95 24 41 41 97 21
1173 -0.52792285747908418 2.0490026278569347 1.4225100709942602 251 211 56 0.18080631089368746 46 160 7 349 26 328 60 701 53 172 82 147 34 384 6 163 21 162
2420 0.10382061434896978 0.90732554386130249 1.7724536157948354 183 193 221 0.22197823049399795 82 642 43 682 88 670 32 1055 11 719
63 0.47735409937187878 1.1796602944014423 1.3910842376956984 142 126 39 0.1536723365016128 17 28 95 21 41 36
1172 0.48838084091771311 1.1549204864805718 1.4103012015670782 159 131 35 0.36683759096613128 55 278 7 286 64 683
2419 0.1912405884179951 1.0144791032363967 1.6468475118194912 23 30 42 0.39343640088580178 82 645 43 679 88 673
62 0.3427980699136044 1.1500976560370058 1.4422594292045419 17 15 8 0.36987568737155757 17 24 95 19 41 32 97 15 90 227 98 187 46 299 83 222
1171 -0.93030316533946489 1.6082877973324765 1.2042784472726631 255 227 83 0.24524063232625731 55 77 7 277 87 275 94 291 40 626
2418 -0.53361902907014147 2.8645545528388539 1.3298262042686095 0 0 0 1.1360503722738746 54 735 43 634 88 523 68 834 53 649 32 967
61 0.34250229853275244 1.1492959581444986 1.4401168474861974 17 15 8 0.29047226254779362 17 25 95 18 41 31 97 14 36 6 30 265 51 263 90 226 98 188
1170 0.18652353536708494 0.71604852931499785 1.9264582560613228 196 120 14 0.8178735299868185 9 0 7 236 26 386 60 744 53 528
2417 -0.59348498429237606 1.9738815447896989 2.5720909744174203 64 39 27 0.70213710891334158 54 610 43 621 32 1023 1 313 11 689 76 599 25 597 45 408 86 266 100 517 80 275 39 209 28 384 31 184 47 564
60 0.44192061280836809 1.1424777975540508 1.443898861492229 139 125 40 0.083802879312931663 17 23 95 17 97 12
1169 -1.0166009284898572 2.9049433766540966 1.289011649039705 103 107 100 0.44425799146632405 9 176 7 231 64 309 60 576 6 237
2386 6.0069576664380149 17.69333598498147 18.163999636511384 230 214 176 2.9593294903235203 53 273 43 315
29 -0.23690115747473608 2.6164273810693275 1.697621731772768 82 90 89 0.50556022290770775 17 771 46 535 95 515 41 818 97 439 51 421 90 406 98 417 83 442 91 456 9 498 29 467 7 568 40 914 82 597 33 276 77 204 81 121 4 81 49 142
1138 -0.65244897375228661 2.8269852602098009 1.3363085721491317 113 78 59 0.1183743961057685 41 704 55 262 7 384
28 -0.29945008700560022 2.0442477190693942 1.5250347819875489 5 7 9 0.55388078042526079 17 719 46 627 95 620 41 777 51 503 98 498 91 546 9 349 29 569 49 568 13 470 18 600
5115 -0.26754443930980193 2.0124325960448544 2.4282756076152383 30 26 20 1.8865920511921093 99 686 75 684 89 507
1137 0.12956184846064817 2.6490185136256357 1.7015255124439577 80 80 73 0.92739772987157609 17 777 55 255 7 589
2384 0.12302968606030693 1.7220369176513102 2.9523191072557351 148 100 75 0.5956766065745106 54 102 43 286 32 729 11 456 76 164 25 154 45 219 86 407 28 426 31 242 57 202 72 226 22 275 84 630 69 743 63 396
27 -0.43952548361083371 1.8654564807306842 1.6204340333058376 242 194 55 0.65901952179976597 17 708 46 610 95 612 41 765 97 357 36 70 30 65 51 314 90 55 98 45 91 288 9 582 55 490 7 649 87 787 94 768 24 823 26 626 60 989 15 734 88 604 68 918 44 880 92 617
5114 -0.52583131538063155 1.9231384884003313 2.614399026845343 156 99 68 0.21575658426342134 99 589 75 585 89 351
1136 -0.70764090620027764 2.6404935573251858 1.401095438935277 0 0 0 0.46790054337143816 29 477 46 531
2383 0.31177003915797363 1.7929397928723148 2.9371454844317295 229 214 178 0.091985146055647365 54 87 43 256 32 677 11 422 86 409
26 -0.13313301888348694 1.6124744052774538 1.5586661062134315 214 186 88 1.8582549895399267 17 682 46 592 95 395 97 329 64 597 55 303
5113 -0.57716850930440644 1.8814704567669447 2.6787968679508145 158 104 75 0.27137306589673371 99 366 75 584 89 418
1135 -0.35354070336441512 2.0468346662696137 1.5126750528746917 131 144 176 0.39887787419693183 9 104 55 214 7 356 64 456 87 358 94 373 40 706 93 60
2382 0.32014677876010317 1.6601070300320449 3.1147043685288645 70 50 43 0.55627437598811358 82 230 43 253 32 710 11 458 92 381
25 -0.82735245113469935 1.6146352475529462 1.2215634263082156 255 221 63 0.62082142699949605 17 676 46 579 95 390 41 753 97 50 51 283 91 233 9 33 55 482 7 623 64 722 87 760 94 734 40 1075 24 712 26 685 60 1055 53 701 15 627 93 707 82 674 34 750 6 733 54 724 68 897 32 982 1 422 59 638 11 645 21 670 70 589
5112 -0.93737824742016473 2.8234979640055284 1.2473811687047633 0 0 0 0.83742146469300105 99 619 75 574 89 413
1134 -0.90331423802219524 1.7059832758723146 1.1165368876461976 105 81 22 0.46403434419735706 46 82 55 139 64 447 7 109 60 177 34 202 54 215 43 161 32 189 59 337 21 376 65 237
2381 0.16982247632034439 0.88084449884517368 1.84527431260304 124 107 31 0.29832875049171881 82 212 43 226 32 591 11 290
24 -0.86195989465163303 1.4260676340174787 1.2653483427719583 0 0 0 1.7743982220915904 17 666 46 781 41 865
5111 -0.31918418458495945 1.9784174623229471 2.6199381986164632 223 204 163 0.087713242734547767 99 371 75 354 89 358
1133 0.29529742864582148 1.9253318228703558 2.7167921645770967 234 218 179 0.16318038722510411 17 168 95 116 55 120
2380 0.44617188898395838 1.1226583288310132 1.468873956075792 168 138 36 0.2258724429315638 82 225 43 202 32 316 11 2 76 4 25 3
23 -0.71660551906865788 2.8478339566511908 1.3081281720270697 124 85 62 0.59241999849542781 17 629 46 548 95 542 41 707 97 461 51 249 36 239 30 247 90 219 98 180 91 190 9 205 29 634 41 839 55 456 7 586 64 762 87 389 94 394 40 724 24 51 15 32
5110 0.16476787372542873 2.485895024621207 1.8422522926611524 89 59 42 0.18870411800739109 99 370 75 352 89 357
1132 -0.85865394558502917 1.6345027704500046 1.2100727995509724 255 230 83 0.53374166593336736 46 65 55 95 87 285 26 283 64 420 53 341 82 347 34 393 6 380 78 377 54 441 43 367 88 384 68 526 59 325 18 4
2379 0.48478723248284822 1.1583402980413195 1.4207004614077892 171 138 35 0.14498654733596136 82 227 43 200 32 311
22 -0.65341280413179481 2.8275532995604209 1.336607897639231 113 77 57 0.3062117406498005 17 624 46 546 95 541 41 703 97 459 51 431 90 218 98 179 83 216 91 193 9 209 55 261 7 383 87 393 94 399 40 726 24 278
5109 -0.55153264853234063 1.8947558373194033 2.5842137975313477 27 13 7 0.64539117094282339 99 278 75 268 89 289
1131 -0.77255775319309006 1.6064329086827176 1.2209682307176555 255 226 77 0.10216021367403044 41 106 55 83 7 282
21 -0.40169497365413281 2.7242519093478283 1.446640117577596 71 51 42 0.41540197076648955 17 615 46 764 95 534 97 456 29 480 55 451 7 583 64 661 87 408 94 563 40 911 24 99 26 562 60 922 33 148
5108 0.64686503727017475 1.30343419353276 1.5430046912195359 2 2 1 0.21863693018440256 70 373 75 124
1130 -1.009001042391185 1.5413487550013254 1.3117688754828341 254 234 88 0.21185880875690158 46 38 55 44 7 261
20 -0.35109935374885176 2.6796231479616663 1.5564249865509017 28 22 20 1.0917583079800628 17 613 46 753 95 529 41 686 41 830 97 244 51 427 36 226 30 233 90 211 98 170 9 505 87 579 40 739 87 405 24 307 15 248 93 269 18 104 70 73
5107 0.10223016270881397 0.79815757748291905 2.1183942969870273 255 252 100 0.5823495324723873 42 112 63 321 75 106
1129 -0.26311142637819007 2.7758399765258379 1.4928564724002957 58 58 54 1.3335650671298083 9 815 95 678 17 788 98 559 83 581 29 620 55 452
2376 -0.35016583596797018 3.027670958528164 2.4846945276375085 171 140 47 1.2842922336927198 78 202 43 132
19 0.019680187681629307 2.563061076045174 1.75491213629715 47 34 29 0.93593725107543602 17 591 46 537 95 280 41 665 97 217 51 220 90 206 98 166 83 202 91 470 9 510 55 441 7 572 64 497 87 245 26 558 60 912 53 347 82 328 34 369
5106 0.11119331988981734 0.78962609052120736 2.1174931704947544 255 252 100 0.029435207103776728 42 111 75 105
1128 -0.91511250219098694 1.5100442613875713 1.2215218834658272 251 221 67 2.2097375889469699 17 877 95 749 97 637 29 770 46 929 41 1007 33 547 18 566 9 529
18 -0.89498340495012285 2.20030392230592 1.278518244525001 29 37 54 0.19941628853468879 17 515 46 472 95 445 41 641 97 378 51 344 36 330 30 334 90 313 98 264 83 280 91 84 9 94 29 428 33 255 77 528 58 242 48 209 81 271 4 244
5105 0.11082791886936505 2.353355031574095 1.9454622218719526 33 28 26 0.67455523767352521 99 687 75 685 89 508
2374 -0.53842094681393771 1.9305690394212258 1.3168973770991046 251 212 64 0.46442377210267327 43 121 59 644
17 -0.61264021786352674 2.1296259828200288 1.3334088708111984 11 10 12 0.21835087075310702 17 471 46 473 95 438 41 617 97 374 51 507 36 468 30 487 90 485 83 516 91 313 9 341 29 417 79 418 33 247 77 627 58 240 48 204 81 78 4 42 13 322 49 359 3 338 85 284 50 310 67 201 27 335
5104 0.072724922240336276 2.3795500299508152 2.0624237532679528 197 179 141 0.1677875740179223 99 376 75 361 89 359
1126 0.51703490630885274 1.1930936301112536 1.5052875891478477 135 120 40 1.654850738894839 41 1060 29 843 33 638 77 831 58 558
16 -0.62557286770706311 2.1012676317432017 1.320279037864577 254 212 59 0.38219893087856993 17 467 46 461 95 434 41 608 97 120 51 338 36 92 30 326 90 308 98 258 83 274 91 305 9 332 29 170 55 220 7 181 64 486 79 45 13 49
5103 0.077870827043813096 2.4411730787284531 2.0078217311768665 194 178 141 0.082780219198117372 99 379 75 360
1125 -0.80166296340034982 1.6296013880619169 1.2878956240495782 187 152 41 0.55793285453156205 9 880 29 796
15 -0.4033904358618296 2.0844024058599535 1.4513570136742933 35 44 64 0.30882765535516415 17 463 46 170 95 432 41 311 97 370 51 339 36 326 30 329 90 80 98 267 83 282 91 319 9 348 29 150 79 280 33 62 81 74 13 326 49 60 3 343 27 201 85 166 50 206 67 208
5102 0.37570105237178286 2.1084811984518463 2.5535721346612927 228 209 170 0.48105743521380595 99 698 75 696
1124 -0.5953499572203429 2.01354946768434 1.4437853025389329 76 58 10 0.93988845621179329 41 1017 29 785 55 625 7 772 87 920 26 763 60 1141 33 562
2371 0.058797801256924048 2.5625173805017361 1.7541214445770081 76 56 50 0.12523824017272192 54 147 43 99 88 206
14 -0.098294378896674972 1.9937780184209826 1.6530492347916341 5 7 11 0.27568729429806427 17 452 46 462 95 429 97 512 36 467 30 485 55 348
5101 0.83212372545808433 2.3941306536114983 1.9205456974810817 0 0 0 0.37659624507683859 99 693 75 690 89 515
1123 -0.3338949971888498 2.8003121009612273 1.469638895422412 88 89 83 0.6171179868366683 95 680 29 624 33 436 81 433
542 -0.97577303834984541 3.0056726243054599 1.1929540656524844 90 90 85 0.80071028487554685 41 935 97 626 51 436 36 504 29 641 64 674 6 599 33 461 58 445 48 442 81 546 4 488 74 331 62 349 37 307 65 468 2 372 38 265
1 0.57154995301791445 1.2678398367175858 1.4625551251094213 97 79 18 0.29892553785088077 17 33 46 59 95 29 41 45 97 24 51 14 30 16 90 12 29 14 64 333
5088 0.12902135951256671 0.85803252563755805 2.130736414413974 255 255 101 1.0587099882266637 42 508 99 612 75 608
1110 -0.9253655481254397 1.9672672287412831 1.1926820501704847 104 91 27 0.64315360119197862 91 767 9 903 79 617 50 487 67 491
543 -0.93157775633904683 3.0477855745872335 1.2449914965183981 0 0 0 0.96486184622463722 41 848 97 627 30 591 98 637 91 682
2359 0.59368791929666187 1.194348218692346 1.3791767063307812 0 0 0 0.77952227212460146 78 710 54 756 43 568 59 725 21 789
2 -0.89243594096456214 1.6455824465231248 1.153780513671008 255 236 81 0.17374053466079611 17 77 46 66 41 126 55 103
1111 -0.49431392926943657 2.5851264626911621 1.574073594179322 2 3 5 1.2757022459636698 17 959 46 954 9 909 29 829 7 794 33 631
2360 0.049370443990247939 1.6891256366869221 1.8764563563919436 98 65 11 0.18772823391750923 78 720 54 773 1 403
3 -0.33702518327694514 1.8191749511407309 1.6697147229215539 226 189 68 0.33882697357696773 17 124 46 124 41 212 7 310 64 135 26 293 60 645 53 314 82 317 88 351 68 566
5090 0.58435815491648235 1.2052084111877779 1.3991187360594119 0 0 0 0.55762216994505154 42 574 75 636 89 468
2361 -0.99645204271507959 1.5381615806486046 1.3357782822367721 255 237 69 0.51566450364608651 34 752 54 785 43 651 1 486
4 -0.4350797806072082 1.9417841405145055 1.4647829225861482 158 168 195 0.19364293956960582 17 183 46 152 95 101 41 532 97 89
5091 0.093834202693313162 0.81355587828526188 2.0896240272594135 255 255 96 0.54588168915729118 99 640 75 637 89 469
1113 0.55217481759003639 2.090720811370776 2.4945043215987561 162 152 125 0.97058754182442608 46 987 98 755 51 726 30 691 36 677 90 721 9 933
2362 -1.0923000625298938 1.6173636146902961 1.2209707343864342 255 233 67 0.088671461878899252 78 738 54 789 1 490
5 -0.67254527461000968 1.9727110734093845 1.4995240575772462 254 212 56 0.51065990700835517 17 192 46 145 95 118 41 282 51 322 36 310 30 315 90 291 98 245 83 263 91 293 9 85
5092 0.1977893605304295 0.87488388870763634 2.1956803229800821 255 253 88 0.50062404142957873 99 643 75 640 89 434
