# 3D point list with one line of data per point:
#   POINT3D_ID, X, Y, Z, R, G, B, ERROR, TRACK[] as (IMAGE_ID, POINT2D_IDX)
# Number of points: 371, mean track length: 4.9121626510382752
18392 0.62468447749793854 0.70618992851725326 2.9103784545080602 64 40 18 0.34259409022409376 89 169 24 157 10 142 40 150 67 142 3 138
5861 -0.88920546415070412 0.77734457559531744 2.8144592218180819 183 159 125 0.92930832267084384 100 2236 43 776
16134 -0.79979534481835257 0.71649724050876828 2.8952154017873477 90 65 44 0.34580730389092024 17 716 90 676 29 734 74 624
16035 -0.45854342337193976 0.25407133371199025 2.2128117128274307 71 126 48 0.11580401893674222 38 420 90 226 80 16 25 257
5762 0.31932949753839956 1.2067086124778239 2.185002861645247 0 0 0 1.9946696884962403 43 1844 33 1395 51 1413 71 1075
18393 0.64729360716588658 0.73225066064271538 2.9356255707908643 81 54 28 0.20212420634665162 48 297 24 160 97 159 10 145 40 152 67 146
16036 -0.37271297139162063 0.1765490317027307 2.2127206632403489 81 130 54 0.1616296299255589 38 270 90 234 80 19 14 205
5763 -0.11177188176069178 0.11114255182702482 1.9493780507768295 63 123 63 0.30974924187998853 82 1398 43 1850 61 1950 75 1772 60 1782 78 1720 26 1347 20 1645 65 1544 53 1537 18 1461 93 1512 51 1416 19 1275 96 1056 71 1054 13 1083
18395 0.61772265864974063 0.8918968106557007 3.4535228592733551 0 0 0 0.025626384529708897 89 276 24 173
16038 -0.40902680954070236 0.57701376655145464 2.6310270241256553 208 184 115 0.27931423418768442 17 251 38 312 90 253 29 293 80 35
5765 0.015403766652541173 0.5436131690820265 2.652625252650012 167 157 94 0.15207829119638314 55 1863 43 1901 33 1466
18397 0.37065386397164035 0.18703308393646112 1.5139094401493982 85 57 32 0.35392898227701203 58 191 24 183 97 184 10 167
16040 -0.75534485657442119 0.63703233034887041 2.6818405563316698 90 98 60 0.61580068643208175 17 265 25 290 38 126 90 259 29 444 74 343
18398 -0.13595713208040974 0.053074721156547544 2.1235992426414598 167 149 121 1.7690949060697914 48 24 24 185 68 36 84 95
18399 0.3665971099953399 1.4263326455939194 2.6664650975491866 92 87 72 0.57815480785740114 72 65 24 217 97 58 92 219 10 51 40 38
18400 0.09019855938853194 0.36910326429545232 2.7380985510930271 229 218 118 0.32079070323357012 72 238 24 231 92 62 40 58
16043 0.41925464387639211 0.64856768920185159 2.6965171822923688 157 196 102 0.15266857929891009 25 421 90 269
18401 0.51940929299474914 0.89145997528666432 2.6480449446757337 175 191 117 0.38872233252959532 58 262 24 239 97 76 92 68
16044 0.41925464387639211 0.64856768920185159 2.6965171822923688 157 196 102 0.15266857929891009 25 422 90 270
18402 0.2472520644664454 0.42109633437902483 2.7526136857886265 82 152 61 0.24549595345015246 89 127 24 249 97 245 92 243 3 222 90 296 87 92
18405 -0.23362244975136837 0.1884287315697957 3.1766875142967579 217 199 161 1.3304015025406746 42 433 24 282 92 142 10 149
18406 0.62488765498612353 0.73380169571958231 2.9030323895534513 61 37 18 0.51607990117660296 89 272 24 283 97 292 92 278
5875 -0.081056636425388157 0.086042368867996988 1.8450908466627249 48 86 42 0.12718729278582994 82 177 61 155 60 127
16148 -0.64415464290558788 0.62440438279765798 2.2041918943859411 196 150 93 2.2337899592195978 4 893 90 752 80 491
16049 0.041932137323776375 0.43586198602034121 2.6969267129818597 206 201 116 0.21454298808440914 4 103 90 286 14 239 34 293 23 218 85 216 89 84 67 70 48 88 3 205
5776 -0.68193209290660906 0.55103050672801079 2.1787225934638359 238 219 176 0.25878462593398843 55 1945 43 1979 75 1870 61 1725
18407 0.63725672188473903 0.83478067941110123 2.9455106763685386 255 255 255 0.73694732949129371 72 269 24 287 21 181
18408 0.66407296594610865 0.75344797956430176 2.9841920248013754 56 37 16 0.44411058461085462 58 433 24 291 97 394 92 381
16051 -0.095103083137273253 0.39340744239790121 2.704841097292952 49 88 40 0.14719368651845297 17 83 90 288 29 79 74 254
5778 -0.5800634226700202 0.48529026204108205 2.7079363594937487 153 160 77 0.32456967907089651 49 1636 43 2007
18409 0.65736137796163108 0.7837074025508779 3.0905022537995079 76 55 31 0.5133210342459803 89 179 24 294 97 297 92 383 10 367 40 391 67 162
16052 -0.42785924578844536 0.38025619452372628 2.7101456854372441 178 176 99 0.51145065649705734 17 281 90 290 29 322 80 60 14 340
5779 -0.30057355246936318 0.2546165574097437 3.5069746638874904 172 156 138 0.73698470858163556 49 1635 55 1670 43 2010 61 1810 75 1947 33 1543 41 1358 19 1436 9 1126 94 1184 96 1191 71 1205 22 1260 13 1218 99 878 57 872
18410 -0.26597633432776691 0.22550419533892968 3.5894701079609512 194 183 161 0.64559826614859539 89 182 24 295 97 300 58 176 92 287
16053 0.15313351473147777 0.40422502527433046 2.7277867661360373 92 147 62 0.30926097641121553 17 87 90 292 29 90 74 84 80 68 14 258 23 236 85 96 3 78 87 180
5780 -0.68099392300052031 0.90758316706389663 2.5886255025059599 73 104 50 0.33944056807416384 63 1592 43 2017 19 1379
18411 0.59233594218227459 0.83083451111418072 3.2617096188012007 218 202 166 0.32053877024551536 72 274 24 297
16054 0.63833147109701127 0.74483148432458479 2.8540076604964435 109 78 47 0.22806888322813237 17 292 90 293 29 354
18412 0.59917223554687782 0.82289953939352301 3.2851385724355837 236 220 187 0.60682837190443495 72 276 24 298 40 292
18415 0.50738924228553095 0.98032429469293592 2.117494493541364 138 215 128 0.31270163526464073 58 451 24 306 97 405
18416 0.5293738039671525 0.94793243407386973 2.1296750633924244 221 232 176 0.24796187012873375 58 338 24 307 92 300
16059 -0.55089746054261346 0.4741105012510417 2.92113890372132 160 138 105 0.92104887465157037 4 417 90 324 22 981 14 129
5786 0.42083837492187048 0.43719807056432725 1.8242218282078935 195 207 152 0.19940220661388261 55 1981 43 2055 61 2204 75 1995
18417 0.63588259182440066 0.67693760999693786 2.2283696524801031 179 230 130 0.7091335985971754 58 206 89 294 24 312
16060 -0.056543111297751636 0.28112924576783183 2.8544658819425535 81 146 58 0.099756260716694772 17 332 90 327 74 285 40 258
18418 0.2130875046021897 1.3233770771774107 2.5473513030988628 57 95 46 0.76398891798341062 48 404 58 216 24 315
16061 -0.051490139671233767 0.29535736427896636 2.8906308045975817 133 151 72 0.21610399802468261 17 471 90 329 74 293 14 167 23 257 67 114 3 237 87 102 48 146
5788 0.52225493960914726 0.76048582056351222 2.1394726821936652 88 97 51 0.40519560866237425 49 2062 43 2067 61 2233
18419 0.33861279160904878 1.2736087009403243 2.5782359178172576 123 169 92 0.52222605611672657 89 391 24 319 97 208
16062 -0.042731854060248112 0.23179527453033566 2.903507262543104 206 188 145 0.27922942565546705 17 476 40 267
5789 0.34023955097197789 0.48220435528801076 1.9996165214596771 199 208 158 0.044926132192617263 49 1689 43 2068
18420 -0.25157509181117643 0.28698810499176924 2.748687604589128 161 149 83 0.35716030455626707 42 352 89 309 24 325
16063 -0.21643398284887244 0.1836907252924129 3.0234114979586009 143 104 61 0.43052881382191938 17 354 90 339 29 501 74 401 80 100 23 264 2 193 3 333
5790 -0.11037726068669257 0.24425754142952111 2.1984206382249383 66 127 67 0.13440490317433282 49 1768 43 2091 51 1617 19 1480
18421 0.44559575802194407 1.0177408406995656 2.616553009421887 101 152 77 0.10913953881799883 58 246 24 333 97 51 92 53 10 195 40 217
18422 0.14498229258051429 0.48600087679728665 2.6917966114917569 158 177 91 0.32848086020165446 58 66 24 338 92 211 40 222
5891 0.48284976341052988 0.62045828658069502 2.4255912963816835 0 0 0 0.38166627590752372 34 314 59 324 100 350 77 263
16164 0.41692768683333703 0.56017567900753973 2.7341471830699371 101 179 74 0.17602402972856895 17 79 90 95 29 321 74 256
16065 0.25523668826176416 0.09493634752775712 1.4761567133752145 80 57 37 0.69939530761098678 4 598 90 351 80 117
5792 -0.28981143473024989 0.1106205499139704 2.1863263031796434 102 77 51 1.2726545890882512 49 1975 43 2105 75 1801 61 1605 78 1398 60 926 65 1779 18 1805
18423 -0.037325749658634 0.27913766264515683 2.7746378124996873 88 168 66 0.19652594206505075 58 240 89 239 24 344 97 230 92 335 10 405 40 343
16066 0.21481353767772673 0.071681255492508436 1.489933773602542 61 43 26 0.26107633213089831 17 210 90 354 29 2 80 118
5793 -0.30452023699046094 0.16504542123212862 2.2063230268413658 89 79 44 0.257278729667337 49 1980 43 2110 75 1807
18425 0.52286480887393139 0.8962971987764714 2.6873842088319799 241 240 164 0.21633884749812432 58 492 24 355 97 362 92 341
18427 0.62292547223154038 0.7595794964389958 2.7139169530500364 112 102 91 0.059923795526242218 89 260 24 367 97 372
16070 -0.76144264181591315 0.65177587356113886 2.5855093469774739 195 171 135 0.23632495873315054 4 730 90 382 80 138
18428 0.17414721752810422 0.060860416267791831 1.5081457211549789 171 132 79 0.39219831457216259 89 372 24 387 10 373
18431 0.37207146675892899 1.4604575210871926 2.7796249488043574 105 88 72 0.23588969990689179 58 493 24 427 97 441 92 444
16074 0.33150997250176306 0.66233147784466428 2.6647113705973786 63 110 55 0.45072307066745887 17 247 90 398 29 301 74 339 80 149 14 412 85 346 48 350 67 359 3 366
5801 -0.52084650230700624 0.84957103769895681 2.5674468045040362 61 99 50 0.27732727535073903 49 2020 43 2171 33 1662 41 1443
18432 0.4614701479946498 0.66062746304855757 2.7083276209565175 107 140 64 0.14390029413482183 89 425 24 438 68 317
18433 0.44429208992936586 1.2308795854652623 2.8663204192276361 254 253 254 1.5453270782261841 32 630 24 443 92 502
5902 -0.022307824298456735 0.33467490352533202 2.3276855789384951 73 148 85 0.1973113511034793 86 982 61 340
16076 -0.36011791112396224 0.51313635397490565 2.6573395593475855 89 139 62 0.20296110645151053 17 261 90 405 29 305
18434 0.6934324769285497 0.78131812199344208 2.963467326118606 240 246 255 2.2153800400448822 89 448 24 459 92 459
18435 0.62685991175616629 0.80164451259360114 3.4407739033839064 255 239 182 0.35651893595647843 72 467 89 454 24 469 97 474 67 458 28 413
16078 0.55455792636687173 0.67854603837148608 2.7347970242005677 175 150 112 0.29416869435786086 17 435 90 414 74 356
18436 -0.27823145263935412 0.16234115524328735 2.8826058276001043 0 0 0 1.8658585253418625 24 491 10 514 92 542 40 520 42 488
16079 -0.62474083208526976 0.52870829426121979 2.6890614556217036 57 104 38 0.073675580627918749 38 466 90 415 80 156
5806 0.29226689557095265 1.3175414007488786 2.4364696839038857 238 223 221 0.34183384360005797 49 2077 43 2237 61 2517 75 2187
18437 0.52865792331303663 0.89009279477462766 2.735218244431032 100 176 84 0.39509644731144039 58 561 89 484 24 499
18438 0.38011183856087716 0.53215717393046735 2.7886799235568174 161 157 83 0.51006939983935029 58 559 89 487 24 500 97 497 92 548 10 516 40 523 3 424
16081 0.23405913662152419 0.51619993590981339 2.6953056936187725 93 157 69 0.62489851828701404 17 434 38 454 90 420 25 438 74 353 29 451 80 255 14 422 23 389 85 351 48 440 42 562 67 367 21 474 28 390 68 308 66 450 84 435
5808 -0.5553154470101731 0.51170260153880165 2.1736157736635957 255 252 249 0.28037450837624972 55 2285 43 2270 33 1747 41 1417
18439 0.37376916928945481 0.53677116157360727 2.7914931209489962 161 157 83 0.34196615531551094 89 488 24 501 97 498 92 549 10 517 40 524
16082 0.27815527925734174 0.49105446881907944 2.7214287465129967 228 219 127 0.29046551183904989 38 461 90 428 80 169 74 255
5809 -0.32095904302667633 0.6901994672888051 2.5943470826599575 173 161 100 0.72023487410889619 59 2353 43 2271 61 2447 75 2208
18441 0.32920208538211582 0.1459321883403813 1.5016147492228975 68 45 22 0.83990352808360758 85 433 24 518 97 523 92 522 3 409 28 480
16084 -0.052115381915892475 0.1251803911202104 1.846924117958014 0 0 0 0.026449727543086422 27 726 49 1397
5811 -0.10592455824639574 1.5031983258057431 2.5283617893691113 71 137 74 0.28080409338245699 59 2394 100 2254 64 2027
18444 0.59649033566939236 0.74176449431537783 2.1388237583888308 255 255 255 0.52176974983285651 58 579 89 504 24 524 97 480 92 475 10 449
16087 0.52299537206884328 0.68455174071943481 2.9334257763276557 112 101 88 0.50535060907225504 17 611 90 454 29 569 74 463 80 195
5814 -0.73873197246457922 0.61780498241244408 2.5543046833067828 198 177 143 0.37766777069554558 49 2145 43 2300 75 2305
18445 0.18315278577673252 1.180571635860302 2.5346822594319756 113 197 91 0.29547827656828363 58 584 24 527 97 484 92 480
18446 0.29409756961574285 1.4763252204638138 2.5516540263756893 113 102 92 1.4364104215060958 58 641 24 528 97 531 92 484
16089 -0.40101530953346398 0.37880881994048815 2.968122488709553 221 197 153 1.2104269107807566 38 526 90 466 80 93
5816 0.15010913914770938 0.13649671430317031 1.6630176767737925 149 154 113 0.63420651435213971 49 2162 43 2317 51 1723 65 1903 19 1448
18447 0.46071984111393471 1.1954883837475878 2.7435985735720516 92 193 110 0.46900173614118212 58 599 24 541 97 544 92 547
18448 0.3540374451745244 1.1989393962378256 2.5653058311911621 170 173 105 0.68627551255407127 58 616 24 557 97 534
16091 -0.31868284833370775 0.19898114349705615 3.1512123192028962 182 159 126 0.38289342304128982 38 630 90 479 29 592 74 489 80 216
5818 -0.29243511963598534 1.0758188334129697 3.274839168447901 154 157 95 0.1641166038059918 1 1965 43 2354
18449 0.18620780512593074 0.49483817609320646 2.6941698560844949 116 161 76 0.67526333317343612 58 619 24 562 3 491
16092 -0.26042951749947973 0.23121662352854169 3.5932031260125457 140 121 97 1.1220991814479988 38 405 90 481 74 550 29 657 80 217 23 269 14 391
5819 -0.61703431927033225 0.98696373218570277 2.5649814284755297 154 157 95 0.43635568915352929 55 2293 43 2355
18450 0.26183170979264303 0.54412767322036859 2.6912796369440937 234 214 123 0.2961288972903508 58 622 24 564 97 576
18451 0.42011464059580117 0.70227345596227531 2.8065125960874231 167 170 87 0.87960749333431343 24 568 97 549 92 579
16094 -0.60858571666824512 0.458922356926875 2.2387065030605733 223 202 157 0.28272553279674301 17 506 90 488 29 519 80 127
5821 0.25727282871636548 0.14009724308863489 1.5002730647407103 112 86 58 2.0081521350114233 49 2216 43 2363 75 2254
18452 -0.26912641966202477 0.33862597101347391 3.6056177812155052 0 0 0 1.5908986243857903 91 755 24 580 97 587 10 559
16095 -0.95507845750138187 1.0490643291660484 2.7751086681283521 1 1 1 0.5469028937725553 17 598 90 501 29 545
5822 0.0082260267506009954 0.17542794350919014 1.8364847620098741 133 146 99 0.53030443195085908 49 2224 43 2374 51 1821
18453 0.11935078151351949 0.35271824066287993 2.6256721433109029 61 109 47 2.0952699503113501 24 589 3 517
16096 -0.4793529898022999 0.8702918287529563 2.745293385099965 86 152 66 0.5517348601487273 38 97 90 502
5823 0.60392714360098354 0.71185550090750738 2.4770382019378894 172 173 182 0.83975524355523135 49 2219 43 2376
18454 0.034288807144228939 0.41509298961858609 2.7101834536943912 229 206 115 0.85233911604946355 58 618 24 591 3 492
16097 -0.49904457718013862 0.51230867618451026 2.6641584622764536 98 153 67 0.059978924076595018 25 581 90 507 80 247
5824 0.55288143705130077 0.74998293097551039 2.6490435995660118 203 207 224 0.68894143433359711 49 2221 43 2377 61 2605 75 2335 65 2111 18 1975 93 2027
18455 0.49809426191311534 0.64498357487073843 2.6076484197864458 106 145 78 1.7870745423451131 42 653 24 594 67 510
18456 0.66033780737148018 0.75023363257953246 3.0497697812360389 75 50 26 1.5003798916212261 89 537 24 598 48 574 97 607 58 664 42 663 92 596 40 562 10 556
18458 0.36411297122057507 1.3082143014989656 2.4258758904865867 221 210 191 1.655763742903031 58 680 24 603 97 612 92 616
18459 0.22085848282002826 1.7469010812997776 2.7681281332425796 1 1 0 1.1852968339282779 72 607 89 566 24 605 97 637 40 577
16102 -0.3509647235902667 0.40310057863177695 2.7065003891908868 204 178 107 0.18982831329672614 17 536 90 523 80 335
5829 -0.1796994604304788 0.98902499235967967 2.5200763031066469 87 116 64 0.59240494251738229 49 2290 55 2381 43 2462 61 2627 8 1732 31 1652 33 1901
18460 0.346303100024698 1.2795454162519091 2.5234732846262493 112 95 68 1.8189096826649105 58 701 24 630 97 633 92 618
18461 0.28339116203323822 0.63120946023193458 2.6354171553989261 58 116 61 2.6989426840772688 58 702 89 597 24 632 40 609
16104 0.6244277774191912 0.72190891088624509 2.8885993770003759 74 52 24 0.99591748529012103 17 307 38 465 90 525 29 563 74 527 80 338 14 525 23 498 85 477 67 505 3 511
5831 -0.92822596488742326 0.94874609248939912 2.8414136129377487 255 243 195 1.052381301182622 49 2257 43 2479 75 2491 61 2658
18462 0.44437080488061997 1.1854282357846104 3.0107802664926049 0 0 0 1.3299311803541785 89 620 24 661 97 688 92 662
16105 -0.55685139000785966 0.51345508219218861 2.9744265441961479 0 0 0 0.48468678455027925 38 522 90 540
5832 -0.15296220607303768 0.098920420864899827 2.0608418046449439 103 114 73 0.98738711296313697 49 2322 43 2494 61 2677 75 2451 78 2307 26 2284 53 2104 18 2024 93 2071 51 1947 19 1810 41 1649 96 1462 71 1476 22 1384 13 1503
18463 0.36666847047280171 0.43969484724040153 3.1440222447111172 0 0 0 2.5828999364367839 72 645 89 623 24 664 10 641 40 639
16106 0.45370658704116973 0.46599025116938519 2.9628342888875907 0 0 0 2.8109472307428063 25 549 90 541
18464 0.39040672278183819 1.1479822403300495 2.5797743325504956 193 175 107 0.21797943298498779 48 53 89 58 24 48 5 175 91 330 32 339 42 245 72 220
16107 0.61942702002119743 0.8359912870945867 3.2454705111137212 217 198 153 2.8120071472435599 38 607 90 545
5834 -0.72335229733514927 0.74086773057446187 2.5672924472121132 254 244 248 1.5029991295402645 49 2357 43 2538 61 2716 75 2479 33 1912 65 2199 18 1989 53 2061 93 2034 51 1990 19 1801
18465 0.09385499579117218 0.36817845605504018 2.7345231710730253 228 213 118 0.31910621673708511 42 378 58 244 89 327 24 232 50 673 85 236 32 120 15 323 45 162 72 237 28 220 68 202
16108 -0.23649398283214818 0.19567891291960798 3.1521219366168078 255 254 213 0.27507024371130379 25 560 90 556 29 653 17 630 74 546 80 303
5835 -0.19120418057486543 0.029605633810463675 2.0852832871489388 197 195 203 0.36606488727835917 49 2369 43 2547 61 2736
18466 0.023755782436114703 -0.0046190694116363951 1.7211137388179354 225 207 163 1.1626977191211738 32 649 15 658 45 589 42 585 58 576 24 548 58 610 89 540 97 525 10 539 40 543
16109 -0.29657204414100469 0.25390453093350951 3.2772746401996624 188 166 128 1.1694128618331172 17 665 90 558 29 655 74 493 80 306 14 387 23 267 3 252
5836 0.13107999351597302 1.5948987799763146 2.5321369163075289 141 208 110 1.8282881872772883 49 2368 43 2548 61 2739 75 2494 60 2493
18467 0.62854173042146699 0.7502424217605882 3.1338378677543646 200 181 140 0.64139033184932082 42 321 58 438 24 510 72 380 89 498 97 469 92 514 10 534 40 498 67 401 3 452
18468 0.63335079887273549 0.74881580881890875 2.9854696400976901 108 79 41 0.80239900263797193 15 799 58 675 24 618 72 603 89 581 97 623
16111 -0.34539759508304541 0.15469122450191955 2.2228732179618937 255 255 212 0.33211377200236858 17 504 90 576 29 517 74 423
5838 0.38634050119598828 1.0835465203042431 2.3504819258478435 0 0 0 0.12545108734959179 43 2558 33 1967
18469 0.13934606912571482 0.46361362030764763 2.5340037966168989 201 184 144 1.9464969966727093 42 716 58 725 24 659 23 587 48 644 85 519 89 618
16112 -0.50943846293978545 0.67956702507737576 2.6210330692468737 245 226 138 0.2893703569568189 38 650 90 587 80 321
5839 0.16427376118530154 0.23711855539252835 1.7418464683781205 70 134 72 0.74608311292185225 37 90 49 143 43 103 16 93 73 72 77 121 75 69
18470 0.3116321327798024 1.5169401591443046 2.7749846315545574 255 255 255 1.220948277548078 32 806 15 817 45 836 42 676 24 563 72 545 89 511
16113 -0.50087815717590567 0.63908740715462986 2.6331717939713037 94 163 74 1.1612405612732644 17 589 38 699 90 590 29 535 74 433 80 325
5840 0.17021559662041005 0.62934678145483525 2.6385848217660381 161 149 95 0.24492018419300943 34 354 73 344 1 880 63 284 12 315 62 246 54 882 98 787 43 336 82 375 55 988 8 881 83 289 79 637 44 660
18473 0.5201407366586589 0.93837209892158946 2.7213867501931577 221 215 150 0.42827010152888473 56 705 5 782 91 604 24 435 42 570 58 558 72 435 15 644
18474 0.47911097002531289 0.99542963080896396 2.61847576405399 168 188 104 1.2118515716817779 56 582 5 559 91 594 58 480 24 419 32 683 15 728 45 789 42 564 72 549 89 472 97 344 92 329 10 300 40 330 21 571
16117 -0.64327121288863709 0.52871503232325956 2.7226838567180756 167 144 79 0.1615930743318503 38 664 90 598 74 447
5844 0.16684891628769091 0.18727667932696992 1.6904032304631649 174 175 125 0.68677748696656782 95 2155 62 2134 55 2247 49 2069 43 2214 86 2258 82 1797 61 2399 75 2155 64 1957 60 2162 33 1705 7 1710 78 2074 26 1934 20 1987 27 1704 65 1906 51 1724 19 1449 41 1373
18476 0.44681019616584816 1.0909224432127225 2.1499135412061285 170 170 170 1.3404306429223136 72 472 48 400 89 462 24 523 42 621 58 578 97 565 92 476 10 448 40 466
16119 0.011394790862999132 0.3034973001072061 2.8202299043669257 149 159 80 0.52667675265563108 17 653 90 611 74 569 29 630 80 348 14 495 85 412 10 467 40 479 67 436 3 427
5846 -0.73779362288050021 1.290473381734156 2.8491047233189724 201 189 180 1.5050978029658884 34 2307 73 2129 43 2477 55 2235 49 2146
18477 0.63054981024103807 0.7326981575982825 3.0762436425924116 255 254 209 0.23164516898405063 42 537 58 574 24 509 72 459 48 470 89 497 97 468 92 465 10 488 40 496 21 505
16120 0.20643788005324684 0.40925937632499643 2.8635652494410064 103 163 69 0.63334033002588941 17 612 90 613 74 528 80 346 14 496 85 417 42 518 32 618 89 489 97 500
5847 -0.49346628666008852 1.2416656835928728 2.5307507537595515 231 219 134 0.36696971382105692 35 2201 37 2291 43 2173 16 1915 73 2118 95 2030 1 1829 34 2207 63 1844 12 1699 100 2130 62 2014 54 1613 55 2111 49 2128 64 1875 83 1628 33 1636 7 1648 51 1662 41 1422 9 1163 94 990
18479 0.42126538773532585 1.2717989711283684 2.5970211153678262 97 165 86 0.33548145061298529 56 782 91 593 24 324 72 320 48 236 89 304 21 96
16122 -0.31980921183734345 0.2451858916135449 3.6028522465623967 0 0 0 0.83244085375788224 17 693 38 632 90 623 29 685 74 551 17 576
5849 -0.31309781778693047 1.0284985587205018 2.5136192831902209 49 73 37 0.18064945187436582 16 1429 49 1536 34 1665 73 1583 43 1636
18480 0.48314141675044875 1.0120864196409673 2.6339648125533119 112 166 87 0.69568796448316761 56 696 5 691 91 597 58 484 24 340 42 402 48 253 89 229 48 87 97 349 92 429 10 302 40 333
18481 0.57342529218964156 0.83086613627092853 2.1482715417727283 93 154 84 1.0952429862355513 5 637 91 554 58 341 89 289 24 194 72 38 89 26 97 312 92 186
16124 -0.88909176070994889 0.91034886908092583 2.7946835163331976 96 121 57 1.486185052703336 17 679 90 632 29 670 74 516 80 327 38 737
5851 0.091309089166595303 0.95745640612039939 2.5402431228342199 126 120 76 1.2915583371914787 55 2485 49 2387 43 2562 16 2224 95 2360 1 2128 63 2124 77 2753 54 1962 82 2145 33 1970 41 1759
18483 0.1232500066945065 0.36950833039536429 2.8704924184553722 91 156 63 0.13346597523570833 89 148 24 137 40 111
18485 0.51140554865267984 0.64931286856147341 2.7576519040329259 188 172 91 1.9044555136708325 58 716 24 649 97 669 92 643 10 622
16128 -0.74653257153415431 0.66321821796009039 2.9509989727805404 84 63 43 1.0234611018327446 25 595 90 646 29 716 74 609
5855 -0.68530944243387104 1.2172181469542833 2.5876834908722111 98 178 82 0.82591687983567341 35 1740 34 1739 59 2118 37 2113 43 2022 62 1610 55 1957 49 1867 41 1067 94 579
18486 0.65362838496627829 0.065181717036407932 1.6446968814069252 139 120 95 1.9813779719253461 85 19 97 5
18487 0.61491891313862634 0.39617162502790726 1.7634790633112591 133 112 84 0.04128614761529345 48 18 97 10
16130 0.5191117523787655 0.29856554723276718 1.6755794279153249 230 210 166 0.33892313000555724 17 668 90 654 29 688
5857 0.14246781220073682 0.93369646805572559 2.5546575652801033 59 107 54 0.0050324588920196162 49 303 43 347
18489 0.62129370985917132 0.67919856088548725 2.4586425453614402 255 255 225 0.33987109745111549 24 57 97 29 92 194
16132 0.18669312025770643 0.51176848783133277 2.6993540228420878 108 171 75 1.1006123317756107 17 645 90 672 29 705 80 412 14 545 23 517 85 463 48 546 85 444 89 512 24 536 97 537 10 456 40 470
5859 -0.1832718924346467 1.0250931190373045 2.5100913566118956 61 103 56 0.14489591073739552 55 472 43 475
18490 0.26827218881401382 1.0116905034742096 2.5725310819907712 99 175 89 0.12893281622304475 58 223 97 31
16133 0.11929993958163396 0.43061910745309984 2.6897281887368707 187 186 111 1.6425937392870187 17 646 90 673 80 413 14 546
5860 -0.49199695818192701 0.74984522737858039 2.5903005874414164 194 187 114 0.18556294424958064 63 228 43 633
18491 -0.31361119908868595 0.2938838327263873 2.7470877441742987 63 103 55 0.12845401455736188 24 45 97 37 92 38
18492 0.4554462413330439 1.1343815718091301 2.5977719872005585 98 181 96 0.26011418995258756 58 241 97 45 10 39
16135 -0.17475758140129671 0.25021604431272043 2.8923967087409803 155 156 84 1.4343130044028116 17 558 90 678 29 576 74 470 80 297 23 523
5862 -0.69362928497512011 1.0684029918700995 2.5723007691895536 66 119 55 0.002147358405093989 49 1868 43 2018
18494 0.44832627705967476 0.59514764929046549 2.7535102965224243 199 176 98 0.14150646157372068 72 156 97 115 3 91
16137 0.095658194162828225 0.3897532519080652 2.5984455731322784 211 193 151 1.2425045657409337 4 722 90 693 14 542
5864 0.63581096504244716 0.45848134266666851 1.7046179948066003 216 224 242 0.038755996384483522 86 87 61 25
18495 0.62439518515534631 0.91860115501071049 2.7874891591106969 255 255 255 1.3208738992736551 58 142 97 141 92 121
18497 0.65662832713072317 0.73490966575947536 2.9471751803749244 106 73 41 0.20443215605964021 72 174 97 161 92 280 10 146
18498 0.28848114358784516 0.11078759487515652 1.4864547217714579 255 233 129 0.63732116984853637 24 299 97 181 92 169 10 275 40 302
18499 0.40058894921363364 1.1380574278579525 2.0949907655818314 255 255 251 0.29625476881169266 58 195 97 186 92 9 10 9 40 191
16142 -0.68237338304219941 0.6515430006125178 2.6140820356731083 81 70 59 0.52752805478935116 17 753 90 737 80 480
18500 0.45771690529396003 1.0616721166869603 2.1073709381797001 124 201 118 0.35269506087774238 58 334 97 188 92 180
16143 -0.68231080278228995 0.6508030050195881 2.6119327630267337 81 70 59 0.54414641338657188 17 752 90 738 29 769 74 652
5870 0.10203291851688481 0.25272860432224137 1.840321304101362 141 155 110 0.059278101690134623 86 137 61 133
18501 0.41785803986699821 1.1264021379805584 2.1151094116542213 255 255 255 0.3440049405020702 58 197 97 189 92 181 24 187
18502 0.36035471504945726 1.4097694111092307 2.5343402106954285 145 124 99 0.11432692640950071 58 220 97 204 92 195
16145 -0.048391329313674999 0.33693850943707504 2.7329727164696314 207 199 117 1.0522514489073165 17 757 90 743 29 774 74 657 80 485 14 599 23 562 85 496 67 525 3 534
5872 -0.094154574960718773 0.055610477931006694 1.8392172403523892 47 93 49 0.26204771544758065 49 257 61 151 60 119 33 208 78 111 53 91 18 84 93 89
18503 0.47661675215737453 0.61799399001980204 2.5393857699109765 190 174 136 0.30103728219569914 48 255 97 209
16146 -0.15440454407636356 0.28410509643604775 2.7160318402550976 97 126 60 2.0811299974334427 25 720 90 744 80 486 14 606 23 571 2 595 28 543 68 456 66 577 84 569
18504 0.39186048619733549 1.3828653869884568 2.5923462863648985 113 104 92 0.16461666403465791 24 42 97 213 92 319
16147 0.65295406807006928 0.90065176644421596 3.4015222254425233 0 0 0 1.8574688496557297 17 689 74 613 80 489 2 566
5874 -0.08092062392284971 0.085913068820881733 1.8456240592641004 48 86 42 0.15725421180433477 82 176 61 154 75 137 60 126
18505 0.49546354608507071 0.97919698371427588 2.6515113001760007 88 159 72 0.15084927316848457 91 365 97 233 92 228 10 58
18506 0.50636768895796624 1.0200459557144395 2.7263235573410594 88 166 86 0.41222987471375933 58 286 97 255 92 80
16149 -0.61435366658635238 0.53960440454698855 2.912908848414808 244 223 173 1.4801381969671881 17 783 90 759 29 794 74 671 80 487
5876 0.15341829133952209 0.33521692073991938 1.9198858664213507 187 191 143 0.052436038679668118 43 147 61 159 75 128
18507 0.39482222152611812 1.4122889810146257 2.7886621353396857 135 112 91 0.11662208645906458 58 403 97 257 92 256
16150 0.46914437426626387 0.71655147896916083 3.0162984651248532 0 0 0 2.1120691358407959 17 775 90 760 29 795 17 784 74 675 80 499
5877 -0.20130180490525357 -0.050138115632905822 1.8212698016919446 193 171 139 0.20357928204158687 55 983 61 162
18508 0.52616949997941742 0.67183997929935291 2.7427797631292097 154 147 75 0.59036366047893818 89 149 97 266 10 233 3 219 67 235 28 226 68 108
16151 0.41194199509373852 0.23296245229463058 1.5642558737378744 236 217 171 0.59653913157849758 17 778 90 761 14 622 80 501
5878 0.17188528568473457 0.35613158066647144 1.9482983513623451 66 124 69 0.14937421681380927 82 197 61 166 75 135 53 128
18509 -0.22406496281280242 0.17879209522025111 2.9706293648019781 83 61 40 0.18891843175815215 89 143 97 267 67 128
16152 -0.061792916232014383 0.31930202774023519 2.515297991978525 236 217 172 2.0122201205270724 17 780 90 763 3 555
18510 0.52213212139525944 0.64087685526523108 2.8456236657795237 255 249 198 0.98015076056319361 89 267 97 282 10 249 67 127 90 127
16153 0.87421786520958256 0.58715679024171852 2.3455788357142797 0 0 0 1.4705289680952387 90 781 29 819 74 697
5880 0.26396830939458904 0.43965206561110493 2.0069754783346392 67 129 70 0.057331171777025632 82 201 61 180 75 143
18511 0.51741789365744884 0.64508848087749149 2.8487479848595743 255 249 198 0.92803121503495989 89 268 97 283 10 250 67 126
16154 -0.45776650670817576 0.25017673899332182 2.2103867860976596 57 103 39 0.37139271040279526 38 421 17 389 90 227 96 878 71 853 22 837 99 773 74 216
18512 0.47210460832796908 0.58891546516457383 2.8645720212449914 201 185 148 0.59565567304838696 58 148 97 285 92 135
16155 -0.44759751448733598 0.54081608492143274 2.6538889004015331 192 176 107 0.11219749257285364 4 340 17 69 90 262 38 325 25 297 74 55 80 40
18513 0.63906757747553111 0.73819508746044782 2.8957997886584987 249 246 231 0.17541970039915949 58 311 97 291
16156 -0.048694580635351134 0.28669355860913348 2.763256219377316 74 106 44 0.55746176873625652 9 665 50 685 70 486 36 254 4 374 38 379 25 347 90 451 57 155 17 304 29 351 74 270 80 196 14 369 23 333 2 362 85 302 48 263 67 373 21 279 28 214 68 201 66 273
5883 0.548748241538767 -0.23805442127806811 2.6690012304949908 59 112 56 1.3788245397507315 86 217 61 197
18514 0.28268176060444983 1.0406063859737236 2.5753183496299772 97 178 88 0.20254702709033903 42 481 58 357 97 325
18515 -0.22016393763528117 0.34864144049136275 2.7279357459881308 85 145 60 0.34643368584891193 89 469 97 329 92 317 58 460
16158 -0.29902143574815965 0.11033513554374419 2.2312816672364466 254 232 182 0.39766589154932164 96 1079 71 1083 22 1046 33 1254 41 1270 94 986 99 769 4 617 38 559 25 499 90 492 57 697 17 507 29 518 80 231
5885 2.3735642752435098 -0.71015575011009302 4.5252460576015245 64 119 66 0.91725085286456931 82 137 61 203
18516 -0.1112832863912625 0.36551357834965725 2.7229218065408562 195 188 106 0.68512683065118751 58 462 97 333 92 320 10 197 40 331
16159 0.3018108564137898 0.1146226921033367 1.5257892914556135 43 29 16 0.98424300954602173 4 851 38 760 17 696 90 683 36 727 25 675 29 686 74 589 80 424 14 558 23 528 2 536 10 562 40 565 3 502
5886 2.3735642752435098 -0.71015575011009302 4.5252460576015245 64 119 66 0.91725085286456931 82 138 61 204
18517 0.49110080361621811 0.95485849175662341 2.6288527966567394 187 217 120 0.56171973231323713 24 229 97 347 92 220
16160 -0.53487437525898929 0.44947556782296305 2.7280970564650153 180 170 89 0.52733547997465946 51 1691 19 1684 41 1471 9 1283 94 1242 96 1357 71 1286 57 913 4 755 17 649 90 638 38 708 25 589 29 669 74 565 80 333
5887 -0.08669603137010784 0.18514039763627502 2.0117119872292339 53 99 49 0.13929416861073865 43 228 61 228 75 199
18518 0.24243679122685843 1.6391251556307991 2.7972790713517299 255 255 255 0.50104376730138389 24 226 97 359 92 348
16161 0.61850360179305619 0.68883703303757626 2.4747249550168746 242 223 175 0.60413783186836634 57 709 4 614 90 578 36 510 38 641 25 490 17 583 29 606 80 320 14 478 23 440 2 474 70 642 66 440 84 424
5888 -0.11988705224794505 0.14072468683457923 2.0234118542179873 62 117 59 0.23238777657660709 43 238 61 234 93 152 75 206
18519 0.64621716510437943 0.73731323813819671 2.9190603130050903 186 155 119 0.44733442716441263 58 428 97 390 10 264
16162 -0.32056545064645015 0.2067271856811676 2.902112554831922 226 203 157 1.8165210981987974 96 378 22 354 99 272 4 428 25 364 17 351 90 467 19 456 94 696 96 740 71 729 22 964 99 545 57 665 4 688 25 365 17 478 29 389 29 492 74 391 80 95 14 172
5889 0.44193060153788088 0.87425592897930193 2.1689903503853341 209 196 160 0.086567175716031217 49 123 61 238 33 87
18520 0.6204887593075884 0.69572787924476054 2.9480613801132378 184 142 94 0.21522398676223187 24 376 58 429 97 391 92 378 10 358 40 381
16163 0.43133530052666413 0.66146710908835327 2.6932185827555517 103 178 78 0.44185474653450596 25 292 90 60 14 69 2 335 85 297 23 298 72 355 42 287 48 365 89 338 24 354 92 236 21 408 87 244 28 305 68 259 66 352 84 365
5890 -0.14786102845876908 0.090096443492076295 2.0534051588488174 101 111 72 0.063424215599124492 43 260 61 244
18522 -0.030897406458124277 0.35114063453794986 2.7319995987686365 231 225 121 0.030200631140278624 58 468 97 425 92 426
16165 -0.55550337097225388 0.45880804845139511 2.788533888721656 145 133 69 0.08058716769006799 38 376 90 304
5892 0.40244675851603773 1.1242328839683164 2.0885141372023521 143 113 84 0.29040474543856287 82 302 61 256
18523 -0.29708489426796636 0.14982670771044554 3.0702379796301962 0 0 0 0.31700179832205305 58 407 97 451
18524 0.66596244404912919 0.75951682227073247 3.0008577707702799 255 251 244 0.253563846077346 24 460 58 435 97 463
16167 0.15718152911540531 0.039865681064196537 1.5679417320922757 235 216 169 0.69590024707942422 4 600 2 460
5894 -0.11036381651443619 0.21131187849926419 2.1225015675822401 157 157 110 0.24118844601873107 43 275 61 274
18525 0.66596244404912919 0.75951682227073247 3.0008577707702799 255 251 244 0.253563846077346 24 461 58 434 97 464
16168 -0.51715536008678931 0.32430963614900843 2.2328594618095288 76 118 50 0.43169514369570533 4 34 90 230 29 28
5895 0.35303214974009434 1.0790477354170156 2.1324234683022443 100 84 46 0.41498771749806701 82 311 61 291 75 211 78 952 18 796
18526 0.6734104311322936 0.77503181395355369 3.0199270189559511 73 49 26 0.15814190025675068 24 379 58 519 97 466 92 462
16169 -0.50213830059635545 0.31499216238469874 2.2454797853261494 212 197 156 0.37570400683760791 17 21 29 32 74 25
5896 0.34660364923385256 1.0952010815766349 2.1309935595232199 110 86 45 0.4610574841200174 82 319 61 295 75 922
18529 0.15836840197911548 1.1180467082771743 2.5476802417278712 160 226 111 0.9618607651774479 58 585 97 485 92 481
16172 0.22388546104467003 0.52697562918086815 2.6925665422827598 109 201 92 0.23796473523344849 17 75 29 69 80 53
5899 0.27718808774654513 0.49497630190404607 2.445570379383565 88 117 90 0.13875664380782929 37 316 61 310 75 252
18530 -0.20022240165071795 0.22134950778845125 2.9455958374772981 193 175 139 0.5579188413785281 58 552 97 496 10 521 40 526
16173 -0.34339497382689677 0.43229989833838944 2.6918441554234995 183 173 101 0.069918143587550469 90 100 29 72
5900 0.24452143135215396 0.47160487740211077 2.4629678686848897 80 84 73 0.15549887600092518 43 241 59 312 77 274 61 325 65 273 51 236
18531 0.42631173735384953 0.56819102345574701 2.7774209100695342 92 152 65 0.2061231408643498 24 503 97 499 92 498 10 471 40 483
16174 -0.49108947149817983 0.42427372432048516 2.7066774947624661 80 104 42 0.33427159081571856 4 368 17 278 29 77 74 73
5901 -0.1542567314886151 0.20605731207994152 2.2618978859451655 54 109 60 0.087976893531657774 82 285 61 338
18532 0.46908017649563349 1.1699518985775466 2.855911835196586 255 254 253 0.18327400975745406 24 444 97 502
18533 0.36854131310345695 0.52934709728707607 2.8524957389279666 81 150 60 0.38858983469430669 24 446 97 503 10 478
18534 0.54126169927548651 0.68089749275329259 2.8561964880398261 255 255 218 0.46818439261326622 24 449 58 569 97 509
16177 0.13078705157955431 0.40962309341156522 2.7232436341842767 131 195 89 0.3446192906532034 90 111 29 87 74 82 14 114 15 139 42 86 70 249 66 270
5904 -0.09157751278067941 0.29349324204805693 2.3400156719567251 67 136 77 0.1470878936875466 82 306 61 352 75 281
18535 0.54393664615080084 0.67901026591702318 2.8542302455841009 255 255 218 0.50646227009463873 24 448 58 568 97 510 10 419
16178 -0.41543947143545779 0.36661009823079133 2.7223683993099428 47 94 32 0.15026946260372739 17 91 90 120 29 91
5905 0.026643546210045888 0.39181000680059241 2.5585843192622408 88 86 67 0.09853703635142487 82 346 61 385 75 1036
18536 0.15359063495602818 1.8529145461295817 3.2781462680807505 249 234 226 0.68258956308992957 89 438 97 516 21 467
16179 0.16395438322602743 0.3687411499491578 2.7607477861702661 86 160 65 0.26228792711314125 17 290 29 100 74 265 3 223
5906 -0.41452058511055345 0.28549316642119005 2.1616292855479387 110 164 83 0.053354027657909073 43 1122 61 388
18538 -0.27267409030288559 0.33222789515079898 3.6074185283871132 0 0 0 0.997141364833528 24 512 58 520 97 518 92 516 10 440 5 720 40 460
18539 -0.21305617589685993 0.2634748792998271 2.6485770918727018 0 0 0 0.83132009459073286 58 582 97 529 92 530
18541 -0.25463864681563653 0.29336143358636624 3.6289104195832964 232 229 232 0.62637723234168208 24 514 58 606 97 559 92 562 10 536 40 540 89 499 3 456
16184 -0.14024014174690477 0.25039837740575271 2.7943050225780439 213 190 106 0.080638567161529118 17 121 29 131 14 152
5911 0.23144604250085046 1.1147120220856124 2.5501628414195521 97 141 69 0.0086039029728827363 43 319 61 423
18542 0.5553993965908457 0.77345031376290829 2.5622313991166763 119 169 88 1.2067782691008708 58 621 97 573 92 490
16185 -0.40881816418302441 0.33895901538288287 2.8066237879953349 70 120 47 0.10756801896494554 4 195 29 132 99 214
5912 0.049703286832676746 0.76722754051913378 2.5811239610904351 85 130 67 0.019576776428811747 82 423 61 428
18544 0.62302381648361527 0.78399108676310736 3.123035140505297 65 43 22 0.074446621462404272 24 579 97 586 92 582
18545 -0.89780756789487648 1.1216451146366211 3.487306657392633 0 0 0 0.52935074306214025 4 848 57 991
18546 0.56209088031484233 0.8671565573856268 2.7745129197187417 96 178 93 1.7340480681515644 24 569 97 603
16189 0.61501009271449214 0.70546713630912894 2.895894845338431 90 65 41 0.15969050915996977 17 114 29 146 74 136
18547 0.65079903138972495 0.80728673931602613 3.0098817045181194 253 253 254 1.0534716362442527 24 578 97 606 92 595 40 537
16190 -0.15913381198777729 0.23821988695699373 2.8230017269433505 205 185 105 0.052015116196681942 90 179 29 153 14 160
18548 0.4919989671771462 1.0295218486511752 2.6699950643373196 106 169 81 0.3695425376458335 58 671 97 615 40 578
16191 -0.6582548707863074 0.46004830453187529 2.8556366641930229 186 164 127 1.7610607088220338 17 143 29 154 74 127
18549 0.51267587452463537 0.86263046522356956 2.6997816871118192 53 83 40 0.35153870396836595 89 535 97 617 92 605
16192 0.62246763723728182 0.70092156919570592 2.9304122042525629 71 46 21 0.14070133742348742 17 129 29 170 74 288
18550 0.10022961023793461 1.7745051243530428 3.3956327202677175 0 0 0 0.86080024789186305 24 617 89 578 92 611 10 594
18551 0.56158425397854128 0.69706132457005809 2.0890999128143815 0 0 0 1.5594958574062174 58 698 97 629 92 615
16194 -0.11031354541396543 0.2669075616362579 2.8623497420990809 82 144 57 0.26890037016825141 17 157 29 175
18552 0.056516065545453603 0.30658396176833086 2.8139942620686642 93 168 67 0.96774106373365321 24 635 97 650 92 630 10 614
16195 -0.72379996929129797 0.62319972266546486 2.9241590466414324 217 193 151 0.172408693040252 17 340 29 176 74 145
18553 0.46655213993055278 1.1921675125418931 2.8153309385227123 255 254 252 1.3744157387385849 24 637 97 652 92 632
18554 0.51974779385606451 0.61063528879530948 2.9832110126774682 0 0 0 0.23701253872819544 48 645 97 684
16197 -0.57616014428849971 0.49504967602632288 2.9100661881676282 250 229 176 0.12736929808351863 57 266 29 185 74 152
18555 0.55260179327240344 0.80475094672800818 3.0804126541295602 80 53 26 1.0619050640696535 58 727 97 685
16198 -0.24160684243120661 0.17666877448776752 2.9331445800647615 234 214 165 0.048995423600337998 38 227 29 211
18556 -0.23106622805170107 0.19805463781214322 2.8781267980198639 0 0 0 0.17027176093409854 4 958 57 1045
16199 -0.23747013377017329 0.16738290138690023 3.0141339894052512 246 205 126 0.41902954881084353 17 191 29 221 10 133 40 141
18557 0.50809452458150561 0.93037576573150893 2.6698614058333363 171 164 110 0.42275890231305724 5 437 91 366 32 189 45 235 88 345 97 79 58 265 72 117
16200 -0.28976655604581725 0.16987701438082664 3.0698059702295599 83 53 22 0.24157415224085771 90 342 29 230 74 307 80 104
18560 0.58865236286198808 0.768316443314775 2.1408173873754293 250 247 235 1.2216640480241172 5 635 91 553 97 408 32 562 15 591 24 395 58 455 92 398
16203 -0.24233647232514316 0.18631422502959988 3.1713015044178472 214 195 154 0.0320871874714257 90 205 29 239 74 193
18561 0.12671448295323975 1.8249648759607464 3.2453333609052137 0 0 0 2.5758754573078839 32 756 15 795 45 762 42 610 42 639 72 532 5 911 91 758 11 1230 47 1150 56 915 58 659 24 573 97 556 32 633 15 646 42 528 89 437 97 460 48 554 92 512
16204 -0.28363881913370126 0.24444337426156881 3.5718349117125983 207 184 141 1.4196114266701432 17 208 29 255 14 189 3 165
18562 0.30017734408700758 0.10635439602524124 1.521985915663139 111 85 61 0.6432647434043276 89 282 24 389 97 400 42 327 58 444 92 292
16205 0.25078262779285554 0.09344551642410881 1.5104680369978678 255 252 144 0.67485365759467408 90 357 29 262 74 207 80 3 66 238 14 196
18563 0.3641678694757422 0.53706470668144868 2.8602963488653663 87 149 62 0.38576421903895003 24 275 97 143 92 270 10 246 40 127 14 155 67 242 3 126 87 195 28 126 68 122 45 570
16206 -0.45127907778208753 0.2420426290253494 2.2224645875685347 147 135 73 0.11310331058054747 90 232 29 269 74 23
18564 -0.54604730493026499 0.25331760459486663 2.3485435433857029 161 141 117 2.7553752655461854 24 301 97 309
16207 -0.56543657176631945 0.40988831601969633 2.2822742148110677 103 92 81 0.83538393453583559 90 18 29 277 74 324
18565 0.40079839289865637 0.56997732557902725 2.9441069819253642 0 0 0 1.7420405387376994 85 316 97 512 21 501
16208 -0.26924510251785366 0.099611306316633993 2.2917955383236084 199 175 135 0.24181767354912828 17 229 29 278 74 224
18566 0.62910514276205309 0.53381370201604517 1.7827944385279124 255 255 255 0.017497949302629573 72 11 92 5
16209 0.24832482774998102 0.45563151280722447 2.4720458866960229 204 187 147 0.30093856109414413 17 232 29 279 74 35
18568 0.028406257840318777 0.44751442169568867 2.6896085947597634 91 121 59 0.30449173989654749 97 334 92 47 10 296
16211 0.49500196916010608 0.93095338738580025 2.6435646494630372 63 85 37 0.16107124030575948 17 235 29 288 74 234
18569 0.46250268438589981 1.105724303264817 2.6055781198989916 152 187 124 0.21350099731810071 24 74 56 421 92 50
18570 0.50134762343885797 0.93624078449356196 2.6306247458230083 166 211 113 0.19650016866840714 58 88 97 65 92 59 10 53
16213 -0.40983591613349879 0.53676180797153672 2.6438476173315442 190 180 108 0.27362342104995674 17 259 29 300 74 239
18571 0.52663083900942464 0.94139164269566822 2.7293623702373346 213 213 153 0.27410202937542361 47 254 92 88
16214 -0.42342656543355583 0.50909358945797734 2.668679028890244 196 176 106 0.37352010503426875 90 411 29 308 74 245
18572 0.39060716570865073 0.53993695233210748 2.7617635313161273 82 147 60 0.41862716487913154 97 263 92 89 40 256 67 103 48 158 3 224
18573 0.47678907825652739 0.62902047666045524 2.7389949645876435 90 132 57 0.12532706798693743 89 145 92 91 40 88
18574 0.43890655680487523 0.58715263893297076 2.7731789998996912 190 175 95 0.052378649712584172 97 120 92 96
16217 -0.94411276838379476 0.95238290497517319 2.8390592508182819 192 166 128 0.08838695760168 90 418 29 341
18575 0.43890655680487523 0.58715263893297076 2.7731789998996912 190 175 95 0.052378649712584172 97 119 92 97
16218 -0.050018186937386827 0.29815624405938057 2.7524746021128395 252 232 134 0.3480907261612598 17 297 29 344 90 446 74 372 80 193 14 366 85 234 3 306 87 72
18576 -0.25720329463594038 0.17180448804228746 2.9839815845648645 78 55 31 0.26265513732020956 97 118 92 98 10 341
16219 0.14711999641395176 0.36593520469261298 2.7767422568565845 88 160 66 0.22658978019039269 17 98 29 350 74 269 10 317
18577 -0.22186027390105573 0.17069230971243612 2.9934880700644539 212 152 87 0.21437600413478547 97 127 92 106 10 126 40 130
16220 0.44219480601426575 0.62777254306572328 2.8488461739379978 98 152 58 1.2586961301157549 90 132 29 359 74 378 23 123 32 212 89 156 48 169 92 122 10 124 40 271 3 119
18578 0.22295456690233087 0.42258894276482561 2.874347484193263 101 153 63 0.25382531412064102 24 142 92 112 10 121 40 122 3 133
18579 -0.22793021434129312 0.17638771888832702 3.0059191994996812 71 48 28 0.16368983492007205 97 132 92 114 10 132 40 136
16222 -0.8361808621172967 0.76279846408400154 2.8885224902146582 116 88 61 0.12858460329420715 17 327 29 369 74 114
18581 0.26844531746507183 0.45897428792606576 2.8713161899926214 90 159 63 0.2485408570729811 97 136 92 118 40 124 67 243 48 165
16224 -0.33017671273446503 0.23131390222498044 2.8813860850040833 223 199 155 0.63538816537114762 17 472 29 384 74 386
18582 0.57103914855877813 0.93286195508093983 2.8133651983099091 255 255 255 1.0070227448587914 97 144 92 123 40 112 10 115
16225 -0.48737112424488704 0.43772296029363167 2.9251052435623088 155 134 104 0.0034497472829597853 17 343 29 385
18583 0.47692585415157474 0.63818302847590291 2.8384927125721089 76 137 53 0.087994106315080464 24 150 92 124 40 125
16226 -0.15278970758144109 0.2499664872654534 2.8961564885803854 98 148 64 0.42753581695328996 17 345 29 386 74 295 14 290 40 264 3 236
18585 0.61845553904028516 0.69729301331930393 2.933755193325871 239 221 176 0.92341443679755786 58 159 97 158 92 146
18586 0.66579923002898023 0.77227323176914708 2.9650758897781655 71 49 26 0.16547165144495277 97 162 92 152 10 148 40 158
16229 -0.26220611170031161 0.23873494586418076 3.6159222639940594 165 142 112 0.12474407487697144 17 209 29 410 74 316
18588 0.56177243568455859 0.87122736737944784 2.1299060052872241 220 223 163 0.2316221816670033 47 108 97 192 92 183
16231 -0.38240795891968626 0.63580745100143043 2.6182044341346966 103 176 83 0.34329042156152373 17 412 90 498 29 430
18590 0.099687049981605519 0.36670033923846984 2.486050336821624 209 191 150 0.22362292186777288 97 199 92 190 10 175 58 33
16233 0.026557040130861381 0.51164239911531106 2.6557425677805853 51 111 52 0.20012371018243783 17 423 29 440 74 344
18591 0.28127399755470417 0.5408833921179298 2.5727309377350029 111 92 79 0.14888099701186047 97 34 92 198 10 185 40 209
18592 0.20946596958853567 1.7111534235630337 2.7026056365140767 0 0 0 0.051700430538200393 97 342 92 216
16235 0.23256540268902812 0.55426763222779285 2.6816256324628469 201 214 131 0.11738588682164693 17 427 29 445 74 348
18593 0.27586578857043909 0.60566166981418512 2.6753255431509442 99 183 85 0.19083971299922506 97 228 92 217 40 336
16236 0.34383357047931273 0.57221208946415847 2.6975723619702037 242 241 147 0.072730116776733744 17 428 29 448
18594 0.33806214013064806 0.6694114197741643 2.6607763671465112 92 160 79 0.35947417859454056 97 229 92 218 40 221 24 341
16237 -0.28539917253010094 0.17280683371125663 2.6623443560192714 98 73 50 0.19744904497908253 17 532 29 452 74 354
18595 0.46901627199881635 1.1563259048421299 2.6487739127297321 239 239 163 0.20984620233065482 91 489 92 224
16238 0.15932303905270948 0.4141972768298785 2.7270409782463036 109 190 82 0.10488326224148056 17 443 29 456
18596 0.43381766162290769 1.2521091903913857 2.6878237519540935 180 208 137 0.021240311512076962 97 77 92 232
18597 0.073124381468565591 0.33052450877888717 2.8101141466940884 180 167 88 0.027493078064945747 24 247 92 245
16240 0.12755614461157863 0.35558211547266788 2.780438147613709 183 168 92 0.19216545775635985 17 455 29 471 74 272 10 318 40 348 67 306
