# 3D point list with one line of data per point:
#   POINT3D_ID, X, Y, Z, R, G, B, ERROR
6286 1.094601 4.579493 -1.418493 85 82 1 0
6287 1.089120 4.581297 -1.477956 76 72 0 0
6288 1.088972 4.528622 -1.465940 69 63 1 0
6289 1.108813 4.550250 -1.287734 80 74 0 0
6290 1.144191 4.358668 -1.496691 68 64 1 0
6291 1.107759 4.659338 -1.533716 84 78 2 0
6292 1.093904 4.593287 -1.559343 73 69 0 0
6293 1.155824 4.300277 -1.433603 65 61 0 0
6294 1.097059 4.631750 -1.551971 76 72 1 0
6295 1.097172 4.544063 -1.551474 72 67 1 0
6296 1.437602 4.642119 -1.064739 217 209 46 0
6297 1.421848 4.681959 -1.106304 207 199 38 0
6298 1.397955 4.651792 -1.069366 203 198 34 0
6299 1.437637 4.707612 -1.144636 214 205 48 0
6300 1.461557 4.674796 -1.107515 212 204 41 0
6301 1.488883 4.703081 -1.153811 216 207 44 0
6302 1.520235 4.725136 -1.200221 212 204 43 0
6303 1.480954 4.744472 -1.203210 198 192 34 0
6304 1.406756 4.721763 -1.159484 201 195 45 0
6305 1.325552 4.641588 -1.068530 188 185 30 0
6306 1.361653 4.661647 -1.085591 200 194 38 0
6307 1.514876 4.776957 -1.268694 212 204 43 0
6308 1.372615 4.628639 -1.038815 203 194 31 0
6309 1.384135 4.593374 -0.997678 199 192 41 0
6310 1.420105 4.606654 -1.014739 208 200 39 0
6311 1.473904 4.606384 -1.032245 209 205 46 0
6312 1.378532 4.693252 -1.121605 199 192 41 0
6313 1.444574 4.742528 -1.185077 208 201 50 0
6314 1.462193 4.710392 -1.156652 213 205 45 0
6315 1.306303 4.587257 -1.002130 166 158 21 0
6316 1.339354 4.601975 -1.012177 180 174 26 0
6317 1.457331 4.817546 -1.312350 200 195 39 0
6318 1.549435 4.810313 -1.337359 210 207 42 0
6319 1.509456 4.828499 -1.341916 212 205 39 0
6320 1.553583 4.763520 -1.276441 212 202 42 0
6321 1.594311 4.804867 -1.367012 210 205 39 0
6322 1.615259 4.846876 -1.444809 213 205 42 0
6323 1.621960 4.820996 -1.417909 205 200 34 0
6324 1.632338 4.788616 -1.392709 206 201 37 0
6325 1.514388 4.661429 -1.113432 217 210 57 0
6326 1.368380 4.561665 -0.960740 185 177 34 0
6327 -1.360067 0.788276 1.080197 153 138 13 0
6328 -1.305127 0.843409 1.123487 153 138 11 0
6329 -1.315383 0.838755 1.068896 153 138 11 0
6330 -1.296683 0.788006 0.556167 147 142 38 0
6331 -1.301144 0.754998 0.522950 161 159 144 0
6332 -1.330867 0.745282 0.562633 147 142 76 0
6333 -1.442961 0.728456 0.806497 149 137 17 0
6334 -1.435154 0.727123 0.886324 148 136 16 0
6335 -1.403758 0.777341 0.814026 148 137 13 0
6336 -1.458341 0.696511 0.972843 145 134 10 0
6337 -1.450630 0.689967 1.042859 149 139 8 0
6338 -1.407627 0.750092 0.981392 153 139 16 0
6339 -1.138832 0.802733 0.422201 245 245 245 0
6340 -1.094932 0.842441 0.417103 235 235 235 0
6341 -1.075030 0.821276 0.387093 247 247 245 0
6342 -1.299140 0.878900 0.691048 176 163 22 0
6343 -1.360599 0.823829 0.710192 169 157 19 0
6344 -1.327756 0.861629 0.748193 169 156 18 0
6345 -1.394513 0.664924 0.508851 226 227 229 0
6346 -1.368729 0.705548 0.537441 183 185 174 0
6347 -1.309083 0.726234 0.481272 243 243 241 0
6348 -1.557243 0.627167 0.814217 186 174 30 0
6349 -1.613186 0.591763 0.790586 180 167 27 0
6350 -1.581554 0.604894 0.852349 182 169 28 0
6351 -1.417108 0.724692 1.078646 160 147 19 0
6352 -1.418188 0.719620 1.156844 160 148 12 0
6353 -1.132384 0.872922 0.468463 131 130 74 0
6354 -1.194714 0.832900 0.498734 143 138 57 0
6355 -1.177443 0.880320 0.509034 160 157 24 0
6356 -1.405640 0.779876 0.758737 149 138 12 0
6357 -1.369635 0.819873 0.777532 156 146 12 0
6358 -1.547719 0.644429 0.716039 193 185 38 0
6359 -1.476971 0.690194 0.724352 153 138 19 0
6360 -1.505108 0.662510 0.692337 156 148 21 0
6361 -1.441890 0.733493 0.754371 143 132 8 0
6362 -1.481145 0.677925 0.927593 154 142 20 0
6363 -1.489946 0.663521 0.974011 168 155 24 0
6364 -1.473861 0.677820 0.880765 145 131 8 0
6365 -1.486879 0.663547 1.014391 167 159 26 0
6366 -1.455657 0.681829 1.106016 163 150 20 0
6367 -1.294287 0.874351 0.949656 159 147 11 0
6368 -1.251990 0.901399 0.964626 177 166 16 0
6369 -1.266376 0.895892 0.898767 172 160 14 0
6370 -1.706240 0.555592 0.733432 189 178 28 0
6371 -1.712340 0.541345 0.756811 182 170 24 0
6372 -1.675663 0.558328 0.764392 176 163 23 0
6373 -1.201929 0.943234 0.731959 201 191 34 0
6374 -1.273827 0.901556 0.742642 179 167 23 0
6375 -1.252373 0.912126 0.821171 191 179 31 0
6376 -1.513247 0.601653 0.614785 159 159 97 0
6377 -1.455928 0.645083 0.599352 143 139 101 0
6378 -1.499985 0.607212 0.573917 149 150 136 0
6379 -1.360477 0.779432 1.213719 156 143 13 0
6380 -1.466428 0.697226 0.777846 149 137 19 0
6381 -1.455814 0.701496 0.847609 150 135 18 0
6382 -1.506668 0.646973 0.946066 164 156 19 0
6383 -1.497353 0.650302 1.073435 178 166 28 0
6384 -0.967641 0.950440 0.412354 136 135 70 0
6385 -1.012448 0.932141 0.443454 155 154 61 0
6386 -0.998444 0.964356 0.438461 172 166 54 0
6387 -1.479603 0.667407 1.162769 166 154 18 0
6388 -1.473904 0.667329 0.831087 142 130 12 0
6389 -1.498982 0.659469 0.790516 164 150 41 0
6390 -1.512803 0.638852 1.004771 174 158 23 0
6391 -1.496386 0.661578 0.910967 172 157 28 0
6392 -1.545497 0.644080 0.772731 190 179 37 0
6393 -1.647701 0.581620 0.734181 175 163 25 0
6394 -1.712253 0.569377 0.673106 183 172 22 0
6395 -1.504010 0.637327 0.894062 162 149 18 0
6396 -1.519765 0.639410 1.228576 178 167 25 0
6397 -1.445619 0.698437 1.264146 170 158 22 0
6398 -1.554733 0.609156 1.129029 182 171 27 0
6399 -1.525072 0.635297 0.839662 205 195 48 0
6400 -1.531372 0.645361 0.804040 199 191 46 0
6401 -1.599540 0.611700 0.715725 176 164 20 0
6402 -1.641444 0.596669 0.694655 164 153 3 0
6403 -1.343842 0.844541 0.794620 162 150 12 0
6404 -1.364895 0.814575 0.860906 150 136 11 0
6405 -1.540974 0.607055 0.960627 171 160 19 0
6406 -1.542804 0.615490 1.040872 182 173 32 0
6407 -1.531807 0.619281 0.645257 195 193 70 0
6408 -1.583349 0.595161 0.613652 210 207 66 0
6409 -1.596141 0.583310 1.034119 192 180 34 0
6410 -1.319539 0.846955 0.651827 172 160 16 0
6411 -1.415182 0.760584 0.711107 159 149 18 0
6412 -1.431817 0.736133 0.682752 161 153 28 0
6413 -1.088597 0.772426 0.374266 248 248 246 0
6414 -1.106469 0.713399 0.354068 247 245 246 0
6415 -1.170708 0.721903 0.391720 248 248 248 0
6416 -1.316158 0.869768 0.805129 164 151 11 0
6417 -1.297694 0.831871 0.595640 168 158 24 0
6418 -1.374305 0.779920 0.652899 159 153 17 0
6419 -1.586870 0.611073 0.747043 174 161 23 0
6420 -1.614789 0.574762 0.929117 196 186 39 0
6421 -1.545122 0.611160 0.892502 196 184 40 0
6422 -1.041464 0.972608 0.470606 181 174 41 0
6423 -0.961977 0.999307 0.448569 203 195 48 0
6424 -1.459492 0.688190 0.659016 160 155 38 0
6425 -1.422902 0.723542 0.651017 153 148 31 0
6426 -1.442918 0.674884 0.635184 153 147 61 0
6427 -1.649775 0.552315 1.146666 196 184 40 0
6428 -1.458629 0.710392 0.676870 155 149 27 0
6429 -1.477294 0.680400 0.682813 155 149 29 0
6430 -1.227400 0.789052 0.489951 127 123 98 0
6431 -1.148200 0.817407 0.463583 141 138 129 0
6432 -0.991151 0.815228 0.341154 249 249 247 0
6433 -0.987361 0.873001 0.352508 248 248 246 0
6434 -0.916125 0.883727 0.328048 245 245 245 0
6435 -1.597597 0.622331 0.682160 191 182 29 0
6436 -1.651465 0.562920 0.846476 184 171 33 0
6437 -1.692464 0.529764 1.025510 195 185 38 0
6438 -1.714266 0.525703 0.907734 192 182 35 0
6439 -1.776334 0.481978 1.219217 195 183 37 0
6440 -1.680256 0.538103 1.252129 190 178 34 0
6441 -1.294975 0.846432 1.210120 158 145 17 0
6442 -1.776334 0.489994 0.972390 195 184 34 0
6443 -1.695470 0.546678 0.787937 179 167 23 0
6444 -1.747117 0.515256 0.817537 182 175 25 0
6445 -1.803251 0.471704 1.071614 200 188 40 0
6446 -1.839962 0.469046 0.877401 198 186 40 0
6447 -1.227983 0.920805 0.890115 191 180 26 0
6448 -1.177164 0.948061 0.834869 205 196 33 0
6449 -1.238980 0.921414 0.678099 181 169 21 0
6450 -1.216821 0.767250 0.451305 240 240 240 0
6451 -1.159432 0.763573 0.409653 245 245 245 0
6452 -1.077731 0.874194 0.433381 173 171 159 0
6453 -1.034241 0.885078 0.387616 244 245 240 0
6454 -1.305432 0.868138 0.879231 167 155 17 0
6455 -1.267178 0.763721 0.483494 200 202 201 0
6456 -1.359387 0.750772 0.601130 153 150 35 0
6457 -1.253672 0.899020 0.625503 176 166 19 0
6458 -1.056748 0.938781 0.462764 163 160 47 0
6459 -1.065053 0.908109 0.451976 141 137 74 0
6460 -1.261636 0.707404 0.431908 246 246 246 0
6461 -1.436522 0.654938 0.553291 184 185 187 0
6462 -1.572196 0.619255 0.654093 205 200 48 0
6463 -1.542508 0.642068 0.673986 201 196 52 0
6464 -1.484082 0.633624 0.634635 157 152 68 0
6465 -1.348051 0.675677 0.467112 242 242 242 0
6466 -1.341367 0.823907 0.963877 148 134 12 0
6467 -1.487899 0.654703 0.661386 164 161 48 0
6468 -1.389755 0.744890 0.629215 151 148 31 0
6469 -1.401083 0.716666 0.624483 150 145 43 0
6470 -1.399785 0.693993 0.603134 149 147 72 0
6471 -1.101328 0.945412 0.495257 174 171 32 0
6472 -1.117745 0.913807 0.481220 154 151 46 0
6473 -0.845317 0.971615 0.371356 191 193 86 0
6474 -0.946902 0.937744 0.367435 200 200 190 0
6475 -0.919994 0.977209 0.385542 157 157 83 0
6476 -1.279552 0.874682 1.043286 155 140 11 0
6477 -1.313806 0.846633 1.018896 152 137 10 0
6478 -1.413247 0.685044 0.574701 148 145 112 0
6479 -1.369408 0.717677 0.571791 150 147 92 0
6480 -1.350351 0.648333 0.442278 242 242 240 0
6481 -1.266925 0.662815 0.404329 244 244 244 0
6482 -1.141839 0.946371 0.536979 171 164 24 0
6483 -1.082707 0.973584 0.509313 189 178 34 0
6484 -1.018791 0.993739 0.499876 207 196 46 0
6485 -1.545906 0.583337 0.589070 168 173 106 0
6486 -1.152461 0.916639 0.516153 169 163 27 0
6487 -1.029283 0.822452 0.361910 247 247 247 0
6488 -0.949203 0.984738 0.412912 167 167 57 0
6489 -1.210294 0.897242 0.558380 166 163 20 0
6490 -1.180432 0.943748 0.586918 180 173 22 0
6491 -0.876809 0.928821 0.343324 191 191 183 0
6492 -1.284248 0.875780 0.993817 160 148 10 0
6493 -0.817485 0.940872 0.345816 172 171 114 0
6494 -1.484674 0.607116 0.522436 238 239 241 0
6495 -1.654411 0.593793 0.656811 196 186 27 0
6496 -0.789095 0.827288 0.304844 250 251 246 0
6497 -0.807699 0.858379 0.308085 244 245 239 0
6498 -0.707979 0.858579 0.309174 173 173 163 0
6499 -1.243947 0.838215 0.537336 147 141 19 0
6500 -1.095255 0.985740 0.564489 202 190 30 0
6501 -1.614615 0.606193 0.645292 198 191 38 0
6502 -1.161872 0.960278 0.619203 198 187 33 0
6503 -1.119784 0.981470 0.652019 203 193 36 0
6504 -1.013781 0.916343 0.415944 147 146 128 0
6505 -1.187290 0.948166 0.662414 195 184 30 0
6506 -1.417883 0.631559 0.481307 236 242 238 0
6507 -1.207445 0.934433 0.635079 181 169 21 0
6508 -0.834050 0.899926 0.322376 229 228 223 0
6509 -0.762710 0.894498 0.316982 184 185 171 0
6510 -1.339572 0.728360 0.551034 145 140 100 0
6511 -0.940881 0.795683 0.320903 251 252 247 0
6512 -0.855704 0.821180 0.309035 251 252 246 0
6513 -0.889618 0.846676 0.317365 249 249 247 0
6514 -0.853996 0.785654 0.314403 251 252 247 0
6515 -1.596080 0.590517 1.239442 184 173 31 0
6516 -1.254151 0.799700 0.522357 140 137 68 0
6517 -0.928839 0.912849 0.340265 247 247 245 0
6518 0.781837 3.377512 -0.924726 128 126 51 0
6519 0.702742 3.461016 -0.839060 131 130 50 0
6520 0.790612 3.518283 -0.910374 136 134 57 0
6521 0.830146 3.176999 -0.975841 127 128 50 0
6522 0.850772 3.005485 -0.986655 127 125 50 0
6523 0.767442 3.097477 -0.916648 126 127 49 0
6524 0.865271 3.431886 -0.980015 130 128 53 0
6525 0.876730 3.536626 -0.968155 131 129 54 0
6526 0.939984 3.478836 -1.018129 124 122 48 0
6527 0.967876 3.596298 -1.010426 120 118 43 0
6528 0.856558 3.614762 -0.932498 130 129 47 0
6529 0.935391 3.685318 -0.967920 126 124 49 0
6530 1.103977 2.507701 -1.091961 135 133 58 0
6531 1.033274 2.510393 -1.049002 134 134 62 0
6532 1.052514 2.616396 -1.083378 132 129 62 0
6533 0.694603 3.155789 -0.848262 124 122 45 0
6534 0.745108 3.256573 -0.900850 126 127 49 0
6535 1.098862 2.760749 -1.153994 128 126 49 0
6536 1.006627 2.723933 -1.075457 131 129 55 0
6537 1.019122 2.854588 -1.111384 131 128 57 0
6538 0.949874 2.597183 -1.009467 129 128 61 0
6539 0.719568 3.805760 -0.687484 141 138 41 0
6540 0.788895 3.836790 -0.763329 142 140 40 0
6541 0.745779 3.766295 -0.754510 136 135 42 0
6542 1.101485 3.387690 -1.126119 116 113 42 0
6543 1.044506 3.298826 -1.116682 118 115 44 0
6544 1.004727 3.411243 -1.069479 118 114 43 0
6545 0.784521 3.781893 -0.792938 143 142 50 0
6546 1.230249 3.107558 -1.242422 129 124 40 0
6547 1.167083 3.096178 -1.217867 137 135 58 0
6548 1.171431 3.162664 -1.202295 135 132 65 0
6549 1.001050 2.440238 -1.023349 130 124 46 0
6550 1.077688 2.417365 -1.062787 132 126 40 0
6551 1.056191 2.357841 -1.042170 139 134 40 0
6552 1.191028 2.834468 -1.232488 146 145 53 0
6553 1.120507 2.893347 -1.187769 130 129 47 0
6554 1.198679 2.936916 -1.250613 144 140 51 0
6555 0.923793 2.794158 -1.022704 129 127 53 0
6556 0.943208 2.935435 -1.059093 127 125 51 0
6557 1.183691 2.498168 -1.134458 133 133 47 0
6558 1.146649 2.405104 -1.098095 136 131 37 0
6559 1.214094 2.411648 -1.128742 132 129 36 0
6560 1.266193 2.384104 -1.144531 149 145 46 0
6561 1.201075 2.321530 -1.109720 148 143 41 0
6562 0.762083 2.791823 -0.878107 123 123 51 0
6563 0.781122 2.551235 -0.872478 123 123 53 0
6564 0.688913 2.652158 -0.793766 117 117 47 0
6565 1.298434 2.313287 -1.142867 150 148 39 0
6566 1.220254 3.264416 -1.195768 137 131 69 0
6567 1.144923 3.255466 -1.171161 127 128 62 0
6568 1.185068 3.329935 -1.167841 126 120 58 0
6569 0.886080 2.896850 -1.005747 126 126 52 0
6570 0.836873 2.847199 -0.954823 127 127 55 0
6571 1.138859 2.616806 -1.141778 130 127 58 0
6572 1.265714 3.162203 -1.248025 152 148 61 0
6573 1.248313 3.215461 -1.220934 125 119 45 0
6574 1.272554 3.208046 -1.240017 145 143 58 0
6575 0.590499 3.010382 -0.708414 123 124 44 0
6576 0.626888 3.179839 -0.772260 117 117 45 0
6577 0.660201 3.024464 -0.796145 117 117 45 0
6578 0.783283 2.954971 -0.918469 124 124 50 0
6579 1.351641 3.250081 -1.252338 144 141 46 0
6580 1.282096 3.273312 -1.234013 132 126 48 0
6581 1.342936 3.320585 -1.243982 149 145 56 0
6582 1.040245 2.987996 -1.138249 130 131 55 0
6583 0.646180 2.850336 -0.758545 116 116 46 0
6584 0.721293 2.991621 -0.859947 123 121 44 0
6585 1.119096 2.325905 -1.075326 145 136 41 0
6586 0.843574 2.683048 -0.938485 124 123 56 0
6587 0.694690 2.862805 -0.816204 120 120 50 0
6588 0.608755 2.824229 -0.709251 118 118 46 0
6589 0.636430 2.712858 -0.736229 114 114 44 0
6590 0.603004 2.708867 -0.693993 112 112 42 0
6591 1.271483 2.492774 -1.176572 142 137 45 0
6592 0.623246 3.344495 -0.762484 122 120 43 0
6593 0.673368 3.271430 -0.828534 126 124 49 0
6594 0.765150 3.865397 -0.708763 144 140 32 0
6595 0.862509 2.539558 -0.934363 128 128 58 0
6596 0.676226 3.610179 -0.741161 132 132 46 0
6597 0.636421 3.575542 -0.706358 128 129 51 0
6598 0.665211 3.640581 -0.718819 125 124 41 0
6599 1.384326 3.302713 -1.251694 152 149 46 0
6600 1.409788 3.244609 -1.259423 159 157 54 0
6601 1.317457 3.144461 -1.266725 156 153 58 0
6602 1.295385 3.099829 -1.267370 153 152 59 0
6603 0.918522 2.443340 -0.964016 123 123 49 0
6604 1.399880 3.101677 -1.289355 161 157 57 0
6605 1.349820 3.109972 -1.280406 155 155 59 0
6606 1.371839 3.175334 -1.269487 156 153 56 0
6607 0.927985 3.083534 -1.055746 126 126 52 0
6608 1.451937 3.175927 -1.274585 170 168 57 0
6609 1.470488 3.080162 -1.290792 174 172 59 0
6610 1.211549 3.184684 -1.209606 143 140 73 0
6611 1.343162 3.047790 -1.285172 164 158 64 0
6612 1.041456 3.184388 -1.131225 123 123 51 0
6613 0.906078 3.259196 -1.031313 123 124 48 0
6614 0.977967 3.283934 -1.076607 121 121 47 0
6615 1.127391 2.967754 -1.195917 131 128 47 0
6616 1.278489 3.054552 -1.264050 145 140 49 0
6617 0.678003 3.638063 -0.738860 128 126 41 0
6618 1.008500 3.112098 -1.114957 126 126 52 0
6619 1.235756 3.059101 -1.253280 141 136 52 0
6620 1.524871 3.158857 -1.282488 180 176 50 0
6621 1.498303 3.261453 -1.260895 183 179 53 0
6622 1.596002 3.232689 -1.263527 187 185 38 0
6623 1.256774 3.011532 -1.262865 142 136 48 0
6624 1.409535 3.039722 -1.298661 167 164 61 0
6625 0.858213 3.712026 -0.899220 135 133 50 0
6626 0.809102 3.278863 -0.955119 132 130 55 0
6627 1.193172 2.721067 -1.206704 139 138 48 0
6628 1.226119 2.610279 -1.191237 141 136 54 0
6629 1.599400 3.136227 -1.284606 179 175 50 0
6630 1.437951 3.016987 -1.305789 162 158 48 0
6631 1.128141 3.037953 -1.199001 134 133 53 0
6632 1.381006 2.978995 -1.308987 169 166 63 0
6633 1.544233 3.086846 -1.297790 180 178 59 0
6634 1.500359 3.030816 -1.306817 169 167 46 0
6635 1.609839 3.053332 -1.302582 174 172 51 0
6636 1.468885 3.031208 -1.300857 167 166 48 0
6637 1.460006 2.990340 -1.311366 164 163 45 0
6638 0.702149 3.352320 -0.852619 125 126 50 0
6639 1.552233 3.033378 -1.309501 173 171 52 0
6640 1.700716 3.131643 -1.273844 183 180 51 0
6641 0.800554 3.659970 -0.869855 139 137 50 0
6642 0.783771 3.724190 -0.821223 143 142 50 0
6643 1.515321 2.970456 -1.320785 162 161 43 0
6644 1.577363 2.990523 -1.318293 170 168 49 0
6645 1.672439 2.994270 -1.309954 180 177 62 0
6646 1.616898 2.977374 -1.315121 175 172 55 0
6647 1.760998 2.979169 -1.298112 179 174 56 0
6648 1.809586 3.083700 -1.255702 187 186 59 0
6649 1.291742 2.855242 -1.278576 135 131 34 0
6650 1.308133 2.932254 -1.289215 147 143 44 0
6651 1.445785 2.919297 -1.316333 159 156 43 0
6652 1.577973 2.907263 -1.325482 161 158 45 0
6653 0.636508 3.476832 -0.751626 129 127 52 0
6654 0.686848 3.567290 -0.780887 129 129 43 0
6655 1.249271 2.785401 -1.248339 137 132 38 0
6656 1.373513 2.888816 -1.305127 157 154 49 0
6657 1.500412 2.885653 -1.323147 162 158 50 0
6658 1.262699 2.708310 -1.239947 137 133 46 0
6659 0.943365 3.373024 -1.039486 123 121 47 0
6660 0.740699 3.563055 -0.853429 135 133 48 0
6661 0.784826 3.602929 -0.876477 145 143 58 0
6662 1.367326 2.811795 -1.300177 139 135 38 0
6663 1.670331 2.886786 -1.319513 166 160 48 0
6664 1.772535 2.846946 -1.301319 161 157 50 0
6665 1.317613 2.757734 -1.274968 139 135 38 0
6666 1.446003 2.821755 -1.316873 156 151 47 0
6667 1.685649 2.774229 -1.313135 153 150 45 0
6668 1.515129 2.719855 -1.314721 148 139 44 0
6669 1.562471 2.607482 -1.286226 150 146 47 0
6670 1.472510 2.604319 -1.279186 145 140 40 0
6671 1.403532 2.709198 -1.293189 146 140 44 0
6672 1.598904 2.797809 -1.324593 151 148 45 0
6673 1.521281 2.822940 -1.325621 164 160 53 0
6674 1.318494 2.627855 -1.242814 145 140 49 0
6675 0.734721 3.640285 -0.813058 143 142 52 0
6676 1.110669 3.195158 -1.170132 129 126 55 0
6677 1.624827 2.684138 -1.307131 149 147 47 0
6678 1.707844 2.685331 -1.293511 147 144 41 0
6679 1.755909 2.744237 -1.296788 150 147 44 0
6680 1.396012 2.595126 -1.259057 144 139 48 0
6681 1.353994 2.527063 -1.222119 146 141 50 0
6682 1.422231 2.491615 -1.230702 145 139 41 0
6683 1.534247 2.492826 -1.245306 143 138 38 0
6684 1.449157 2.344874 -1.186410 151 148 41 0
6685 1.341167 2.419290 -1.180057 149 145 48 0
6686 1.326118 2.213444 -1.142440 155 153 40 0
6687 1.455056 2.205506 -1.163867 154 150 40 0
6688 1.583959 2.253432 -1.177966 152 149 34 0
6689 1.569434 2.149258 -1.165549 153 150 35 0
6690 1.686486 2.537502 -1.260102 152 149 42 0
6691 1.614466 2.379338 -1.212089 151 147 37 0
6692 1.308935 3.203889 -1.249437 147 143 54 0
6693 1.736503 2.383389 -1.213257 147 141 31 0
6694 1.678644 2.170877 -1.172703 153 147 27 0
6695 1.709133 2.274389 -1.187412 151 146 28 0
6696 1.637950 2.938101 -1.317561 169 163 49 0
6697 1.247790 3.353200 -1.194923 113 106 36 0
6698 1.202888 3.419094 -1.156408 131 124 54 0
6699 1.436574 3.295872 -1.254264 167 165 56 0
6700 1.450996 3.242518 -1.260373 169 167 56 0
6701 1.792803 2.178136 -1.171579 158 150 23 0
6702 1.042745 3.494251 -1.071945 115 113 39 0
6703 1.311950 3.379987 -1.226885 129 125 51 0
6704 0.805538 3.769999 -0.827645 147 146 56 0
6705 0.815943 3.808749 -0.812997 144 140 51 0
6706 0.839784 3.790032 -0.850693 129 127 40 0
6707 0.707543 3.735649 -0.712283 142 141 49 0
6708 0.831035 3.755177 -0.858640 133 131 44 0
6709 0.696337 3.660937 -0.749831 134 133 43 0
6710 0.721503 3.706998 -0.760061 141 140 47 0
6711 0.681236 3.686738 -0.710715 133 132 42 0
6712 1.139930 3.489920 -1.123026 117 114 45 0
6713 0.695527 3.628086 -0.762806 134 132 45 0
6714 0.397436 1.738725 0.669438 103 100 21 0
6715 0.354991 1.692847 0.608938 98 95 16 0
6716 0.384523 1.680334 0.674910 103 100 23 0
6717 0.308041 1.857120 0.253171 56 45 13 0
6718 0.277892 1.823432 0.240388 91 88 9 0
6719 0.288122 1.843265 0.274276 90 85 17 0
6720 0.332222 1.630334 0.572418 95 91 18 0
6721 0.355689 1.643152 0.613800 101 100 20 0
6722 0.335603 1.659081 0.568619 97 95 10 0
6723 0.269631 1.614824 0.435899 21 11 0 0
6724 0.269431 1.582635 0.463374 19 9 7 0
6725 0.279068 1.615878 0.479799 29 17 5 0
6726 0.388766 1.852257 0.543270 63 53 18 0
6727 0.376968 1.860143 0.508563 47 36 8 0
6728 0.349589 1.839422 0.508842 90 88 14 0
6729 0.304791 1.885248 0.067846 43 29 18 0
6730 0.302412 1.887444 -0.002797 45 33 19 0
6731 0.300312 1.865755 0.032136 33 18 11 0
6732 0.312686 1.847604 0.343620 87 83 20 0
6733 0.341302 1.857547 0.397070 54 43 13 0
6734 0.336135 1.864195 0.347175 36 20 5 0
6735 0.280035 1.844136 0.182894 94 89 23 0
6736 0.307127 1.859525 0.189368 35 23 7 0
6737 0.290553 1.857433 0.126402 63 52 22 0
6738 0.329774 1.877745 0.260438 35 21 8 0
6739 0.330140 1.885039 0.220189 48 35 19 0
6740 0.425146 1.876229 0.586630 36 23 7 0
6741 0.415840 1.906989 0.553387 38 24 11 0
6742 0.413557 1.871192 0.556149 34 20 7 0
6743 0.452874 1.835109 0.706828 92 86 24 0
6744 0.473630 1.889526 0.678761 46 33 16 0
6745 0.441206 1.859106 0.647435 37 25 3 0
6746 0.490447 1.870051 0.727611 34 21 4 0
6747 0.307493 1.613456 0.558650 52 43 14 0
6748 0.290431 1.594233 0.524579 19 5 5 0
6749 0.311187 1.578757 0.587118 22 11 9 0
6750 0.370232 1.867088 0.468628 32 18 5 0
6751 0.344613 1.578879 0.667991 25 11 10 0
6752 0.344073 1.537375 0.687179 42 31 13 0
6753 0.364063 1.567464 0.715751 31 21 12 0
6754 0.299641 1.620235 0.515229 64 54 19 0
6755 0.375173 2.156290 0.189978 32 22 10 0
6756 0.375966 2.169527 0.147986 33 20 14 0
6757 0.365762 2.131038 0.138898 33 21 9 0
6758 0.358608 1.447641 0.768330 39 26 10 0
6759 0.367626 1.521569 0.740045 52 40 24 0
6760 0.323831 1.455448 0.701138 42 28 15 0
6761 0.301149 1.922813 0.041443 28 15 7 0
6762 0.313862 1.944310 0.002117 27 14 5 0
6763 0.308050 1.896393 0.112208 48 34 21 0
6764 0.354547 1.897238 0.358024 43 28 9 0
6765 0.357423 2.125975 0.028180 32 19 10 0
6766 0.339228 2.071592 0.028756 29 16 7 0
6767 0.352987 2.115440 0.080158 32 19 10 0
6768 0.425007 2.240919 0.223892 97 90 18 0
6769 0.426253 2.269727 0.216207 93 90 13 0
6770 0.410507 2.234932 0.191268 93 87 25 0
6771 0.335690 1.873170 0.302909 34 20 9 0
6772 0.321077 1.823580 0.444290 92 91 9 0
6773 0.314925 1.929627 -0.064212 30 17 11 0
6774 0.393472 1.883993 0.515674 41 27 14 0
6775 0.453632 1.906405 0.636168 36 23 7 0
6776 0.439428 1.890058 0.608066 45 32 16 0
6777 0.487607 1.925349 0.709477 38 24 11 0
6778 0.516964 1.919833 0.762701 41 29 3 0
6779 0.276044 1.759386 0.295947 97 92 11 0
6780 0.290361 1.824922 0.304556 88 86 9 0
6781 0.304373 1.812200 0.370371 90 88 11 0
6782 0.320955 1.495201 0.676461 41 28 11 0
6783 0.299650 1.526318 0.625137 40 26 13 0
6784 0.283974 1.447650 0.628753 40 27 11 0
6785 0.383695 1.596760 0.715760 44 38 12 0
6786 0.324005 1.296334 0.721642 40 27 11 0
6787 0.374214 1.281399 0.797069 44 31 12 0
6788 0.359000 1.359178 0.782874 39 25 12 0
6789 0.501793 2.186370 0.598481 16 2 1 0
6790 0.541711 2.230096 0.605809 89 85 22 0
6791 0.504259 2.220346 0.563260 49 43 17 0
6792 0.409862 1.855377 0.598978 57 46 16 0
6793 0.399510 2.219736 0.245686 17 6 0 0
6794 0.422210 2.234131 0.308233 84 78 26 0
6795 0.435681 2.249894 0.260133 94 91 14 0
6796 0.340457 2.062765 0.112713 28 18 6 0
6797 0.258477 1.643283 0.291259 97 89 16 0
6798 0.280122 1.679053 0.358643 97 92 11 0
6799 0.259166 1.694241 0.251506 97 92 11 0
6800 0.285098 1.629445 0.443558 94 89 33 0
6801 0.319884 1.642002 0.533563 99 97 14 0
6802 0.305549 1.646673 0.480575 96 93 16 0
6803 0.293882 1.656023 0.428562 98 92 14 0
6804 0.316895 1.949355 0.107415 26 16 4 0
6805 0.314882 1.950427 0.047952 31 18 10 0
6806 0.319117 1.895469 0.156848 38 26 14 0
6807 0.357074 1.615120 0.627254 99 93 33 0
6808 0.331804 1.613682 0.599570 70 61 22 0
6809 0.368123 2.192601 0.070660 28 16 18 0
6810 0.367583 2.160447 0.015563 27 14 6 0
6811 0.372619 2.159759 0.087905 30 17 9 0
6812 0.380096 1.622553 0.674396 100 96 23 0
6813 0.399336 1.906326 0.517025 39 25 14 0
6814 0.396112 1.926804 0.481603 38 24 13 0
6815 0.373195 1.892567 0.423604 43 30 14 0
6816 0.438583 1.930124 0.601383 34 20 9 0
6817 0.461613 1.976664 0.638190 32 18 5 0
6818 0.513295 1.989264 0.727210 34 20 7 0
6819 0.303240 1.376667 0.690534 39 25 12 0
6820 0.288880 1.849913 0.214281 88 82 22 0
6821 0.320737 1.857067 0.312146 54 42 16 0
6822 0.298421 1.851961 0.302770 89 82 27 0
6823 0.286022 1.855935 0.061946 57 46 18 0
6824 0.269378 1.825724 0.080812 91 87 13 0
6825 0.238314 1.571446 0.387076 39 26 20 0
6826 0.238227 1.518937 0.443689 36 23 14 0
6827 0.254626 1.553357 0.458041 37 23 10 0
6828 0.278336 1.637401 0.404747 96 89 21 0
6829 0.386614 2.158164 0.256255 29 19 7 0
6830 0.406690 2.152029 0.334627 27 17 7 0
6831 0.403937 2.193167 0.300016 17 5 5 0
6832 0.268768 1.807704 0.151882 92 90 7 0
6833 0.282867 1.730447 0.353040 96 91 10 0
6834 0.297829 1.755072 0.395075 97 92 11 0
6835 0.323369 2.000523 0.040171 28 15 6 0
6836 0.340457 1.604724 0.635942 39 29 2 0
6837 0.369718 1.938236 0.406080 35 20 13 0
6838 0.330654 1.953303 0.216050 31 21 9 0
6839 0.359061 2.095102 0.208242 29 16 7 0
6840 0.325356 2.005446 -0.039831 30 20 8 0
6841 0.475669 1.819171 0.765952 98 95 16 0
6842 0.421791 1.967384 0.547732 36 22 11 0
6843 0.270258 1.544834 0.529843 39 25 14 0
6844 0.259009 1.483629 0.547322 36 23 7 0
6845 0.393071 1.579420 0.753953 21 10 6 0
6846 0.286118 1.572910 0.530357 38 25 17 0
6847 0.426558 1.827275 0.678186 96 93 16 0
6848 0.431019 1.808314 0.694934 98 95 18 0
6849 0.376427 1.816522 0.578622 95 92 15 0
6850 0.405732 1.790773 0.655739 98 95 18 0
6851 0.405775 1.832390 0.638652 97 94 17 0
6852 0.400800 1.557513 0.783414 28 18 9 0
6853 0.354068 1.969101 0.323857 30 22 9 0
6854 0.338906 1.908121 0.280506 38 27 9 0
6855 0.377316 2.199450 0.188410 25 10 13 0
6856 0.434880 1.787697 0.713765 105 99 25 0
6857 0.418271 2.269274 0.153546 94 89 8 0
6858 0.409270 2.239281 0.152021 97 91 17 0
6859 0.258260 1.621098 0.373831 76 67 26 0
6860 0.546303 2.074224 0.751922 40 27 10 0
6861 0.498002 2.057267 0.676905 28 16 4 0
6862 0.386135 1.533568 0.781933 50 38 24 0
6863 0.327517 1.695461 0.533485 96 93 14 0
6864 0.302055 1.700750 0.447070 98 92 14 0
6865 0.269788 1.645026 0.341529 97 91 17 0
6866 0.383381 1.508995 0.787815 44 31 14 0
6867 0.405993 2.005263 0.487084 31 21 9 0
6868 0.526636 2.168472 0.652716 32 19 13 0
6869 0.538112 2.198657 0.663948 12 5 0 0
6870 0.256743 1.370341 0.576270 35 22 6 0
6871 0.255933 1.430553 0.557735 35 22 6 0
6872 0.338331 2.023074 0.178859 32 22 10 0
6873 0.379695 1.995364 0.416720 32 20 6 0
6874 0.377726 2.078032 0.335943 30 20 8 0
6875 0.425251 1.615678 0.749892 107 100 28 0
6876 0.455793 1.660083 0.798541 102 101 21 0
6877 0.417940 1.662384 0.730940 108 105 28 0
6878 0.398552 2.053163 0.436596 30 20 8 0
6879 0.465814 2.054269 0.616745 30 20 8 0
6880 0.433320 2.059576 0.537920 33 21 7 0
6881 0.478605 2.117044 0.606751 30 20 8 0
6882 0.566719 2.136345 0.755870 39 26 10 0
6883 0.527586 2.133861 0.693061 38 24 11 0
6884 0.334915 1.769084 0.503344 97 91 13 0
6885 0.453039 2.160822 0.506150 28 15 6 0
6886 0.411466 2.117889 0.423830 28 18 6 0
6887 0.350992 2.027893 0.255462 31 21 9 0
6888 0.509722 2.151289 0.640133 30 17 8 0
6889 0.439210 1.726308 0.750763 103 100 21 0
6890 0.271078 1.785797 0.219161 96 91 10 0
6891 0.562415 2.162129 0.724247 28 14 11 0
6892 0.551235 2.171940 0.690412 13 1 3 0
6893 0.441267 2.273543 0.301820 93 90 13 0
6894 0.364184 1.750637 0.588992 100 97 18 0
6895 0.384636 2.213592 0.106761 48 40 19 0
6896 0.392130 2.215074 0.063184 90 85 30 0
6897 0.257135 1.741531 0.174860 97 92 10 0
6898 0.572505 2.194056 0.726443 21 12 5 0
6899 0.436274 2.225251 0.371278 40 33 7 0
6900 0.451479 2.221252 0.428179 34 27 8 0
6901 0.467896 2.245528 0.414228 92 86 26 0
6902 0.316720 1.229595 0.751896 70 61 28 0
6903 0.430113 2.182780 0.394291 25 16 11 0
6904 0.467086 2.207545 0.498447 17 7 5 0
6905 0.454834 2.199781 0.456699 16 5 9 0
6906 0.480644 2.201315 0.534984 17 5 9 0
6907 0.495597 2.227508 0.518549 77 71 21 0
6908 0.407431 2.231874 0.117166 95 89 13 0
6909 0.435193 1.866539 0.612022 33 19 6 0
6910 0.367618 2.196975 0.129635 21 6 9 0
6911 0.416154 2.202378 0.339411 19 7 9 0
6912 0.431246 1.585362 0.793165 82 72 36 0
6913 0.390666 2.221714 0.148631 62 52 25 0
6914 0.411884 2.257475 0.060962 96 91 10 0
6915 0.475460 2.232240 0.439315 87 81 29 0
6916 0.417670 2.181552 0.335551 29 17 17 0
6917 0.436108 2.292051 0.263802 95 89 13 0
6918 0.422611 2.317853 0.118726 94 91 14 0
6919 0.350120 2.091739 -0.040850 33 21 7 0
6920 0.458459 2.261205 0.360481 95 90 24 0
6921 0.477080 2.227569 0.469717 66 60 24 0
6922 2.667660 1.653069 1.102871 166 159 27 0
6923 2.605077 1.757259 1.141708 153 143 28 0
6924 2.583545 1.668457 1.169305 169 161 28 0
6925 2.826695 2.057363 0.748515 224 213 33 0
6926 2.790908 2.091373 0.798463 214 211 36 0
6927 2.835426 2.034620 0.795413 213 211 38 0
6928 2.325905 2.191250 1.171108 188 188 68 0
6929 2.239490 2.233024 1.218721 188 184 59 0
6930 2.294204 2.143350 1.220873 173 172 66 0
6931 2.890855 1.961703 0.750955 204 199 33 0
6932 2.869924 2.002509 0.718793 217 212 34 0
6933 2.863354 1.433629 0.889505 170 162 17 0
6934 2.863128 1.353183 0.875188 174 167 14 0
6935 2.887352 1.377983 0.844332 170 162 15 0
6936 2.791797 2.097455 0.733650 222 212 29 0
6937 2.724883 2.154243 0.744176 220 208 34 0
6938 2.746197 2.134942 0.804981 216 209 33 0
6939 2.917162 1.415435 0.799090 173 164 27 0
6940 2.688791 2.068482 0.999386 201 196 42 0
6941 2.718278 2.029252 0.996275 198 195 42 0
6942 2.746171 2.053598 0.948122 204 200 39 0
6943 2.649474 1.939238 1.088519 178 169 38 0
6944 2.597601 1.989813 1.114817 174 169 39 0
6945 2.568758 1.951020 1.143965 170 166 43 0
6946 2.426401 1.531659 1.345245 197 195 72 0
6947 2.494525 1.558646 1.265557 199 196 55 0
6948 2.424013 1.613804 1.301345 199 198 72 0
6949 2.804458 1.490870 0.978594 170 162 17 0
6950 2.826085 1.608559 0.949290 162 158 25 0
6951 2.771319 1.558411 1.013746 170 160 13 0
6952 2.642520 2.066103 1.041386 198 194 45 0
6953 2.679110 2.037164 1.028490 190 184 36 0
6954 2.489611 1.993116 1.180354 161 156 38 0
6955 2.494673 2.086022 1.137839 184 177 44 0
6956 2.414933 2.062974 1.195821 176 167 36 0
6957 2.817424 1.935936 0.936646 193 188 34 0
6958 2.764339 1.990319 0.974726 201 196 40 0
6959 2.747635 1.909429 1.016953 182 181 39 0
6960 2.311414 1.534779 1.424122 188 188 78 0
6961 2.281891 1.649914 1.398530 183 181 72 0
6962 2.238366 1.607112 1.441489 174 173 67 0
6963 2.608031 1.413579 1.260059 206 200 44 0
6964 2.586900 1.472344 1.228855 212 202 43 0
6965 2.527036 1.480727 1.286915 205 203 58 0
6966 2.660802 1.534936 1.113188 178 170 27 0
6967 2.714296 1.549313 1.067388 166 159 9 0
6968 2.763616 1.649208 1.018809 167 162 34 0
6969 2.936184 1.844119 0.765481 184 178 30 0
6970 2.899360 1.860797 0.835714 187 183 34 0
6971 2.925362 1.785117 0.812248 183 176 33 0
6972 2.388078 1.769668 1.281111 184 181 74 0
6973 2.411230 1.773938 1.255484 162 160 49 0
6974 2.367591 1.834002 1.279464 168 164 57 0
6975 2.557604 2.025662 1.125579 178 178 46 0
6976 2.928124 1.573363 0.800598 168 160 25 0
6977 2.961010 1.613752 0.742982 171 164 24 0
6978 2.921458 1.647187 0.820753 174 168 32 0
6979 2.887535 1.605195 0.870430 165 161 27 0
6980 2.891186 1.707051 0.874308 170 160 29 0
6981 2.828673 1.745766 0.954902 168 163 35 0
6982 2.852889 1.533236 0.908867 166 160 22 0
6983 2.699247 1.992820 1.032324 186 186 38 0
6984 2.629929 2.022612 1.078803 183 180 39 0
6985 2.702750 1.455989 1.110983 204 192 32 0
6986 2.750511 1.495148 1.043991 177 167 7 0
6987 2.481115 1.622596 1.246962 193 187 47 0
6988 2.945334 1.700968 0.780321 181 175 37 0
6989 2.968460 1.749870 0.718854 172 169 28 0
6990 2.715551 2.145895 0.866186 215 212 39 0
6991 2.684573 2.180323 0.822495 220 209 41 0
6992 2.350172 1.565077 1.386200 190 187 72 0
6993 2.762553 1.448312 1.047311 193 182 15 0
6994 2.633693 1.452407 1.190627 213 201 31 0
6995 2.604537 1.494957 1.188492 210 197 41 0
6996 2.641178 1.491811 1.152809 202 188 30 0
6997 2.467068 1.462960 1.354211 197 197 73 0
6998 2.530165 1.417012 1.333987 200 197 64 0
6999 2.740760 1.355126 1.152226 217 205 35 0
7000 2.765568 1.396256 1.080380 216 204 32 0
7001 2.315657 2.056483 1.248278 172 166 56 0
7002 2.358189 2.113828 1.196457 175 166 35 0
7003 2.381551 1.999695 1.238605 169 158 40 0
7004 2.328824 1.977283 1.268616 150 150 36 0
7005 2.377281 1.912130 1.258273 163 155 46 0
7006 2.420972 1.704593 1.266847 185 186 66 0
7007 2.346060 1.767376 1.312220 177 176 70 0
7008 2.897896 1.511042 0.842520 169 162 20 0
7009 2.624160 1.254499 1.355736 182 183 64 0
7010 2.611273 1.188702 1.381381 166 162 62 0
7011 2.698088 1.173888 1.329438 171 168 53 0
7012 2.696685 1.335677 1.237882 208 199 46 0
7013 2.754013 1.305798 1.190662 211 203 40 0
7014 2.847164 1.387028 0.922033 185 178 25 0
7015 2.403788 1.173034 1.491811 152 150 63 0
7016 2.432378 1.265906 1.464885 170 168 68 0
7017 2.320380 1.300317 1.506546 160 159 67 0
7018 2.425303 1.840520 1.242082 161 155 45 0
7019 2.491441 1.822761 1.203280 149 146 33 0
7020 2.445240 1.921088 1.219078 165 158 51 0
7021 2.836263 1.280031 1.037935 215 203 39 0
7022 2.820282 1.316821 1.033779 212 201 33 0
7023 2.798907 1.328140 1.077696 216 204 34 0
7024 2.655879 2.184140 0.890376 210 203 35 0
7025 2.828124 1.383603 0.966291 198 190 27 0
7026 2.826643 1.422545 0.952296 183 174 21 0
7027 2.835601 1.309248 0.994793 210 201 34 0
7028 2.864531 1.260033 0.961062 211 203 34 0
7029 2.845508 1.331939 0.941055 201 193 33 0
7030 2.338879 1.382191 1.481720 175 173 70 0
7031 2.759869 2.114334 0.679781 223 213 30 0
7032 2.561081 1.523233 1.221962 209 199 42 0
7033 2.507038 1.677450 1.217030 177 166 24 0
7034 2.551792 1.594634 1.203881 194 180 32 0
7035 2.893147 1.224202 0.888441 206 197 30 0
7036 2.874700 1.284231 0.877497 200 192 31 0
7037 2.554372 1.813315 1.168764 153 148 31 0
7038 2.538469 1.745722 1.189608 163 155 30 0
7039 2.610488 1.552450 1.161854 161 148 7 0
7040 2.816544 1.351745 1.012256 209 201 30 0
7041 2.799865 1.414650 1.009223 200 191 28 0
7042 2.792267 1.375299 1.048610 211 200 32 0
7043 2.812039 2.001106 0.905486 202 197 43 0
7044 2.816361 2.034262 0.858876 209 206 39 0
7045 2.783126 2.054086 0.894393 207 202 36 0
7046 2.712780 1.223714 1.298260 187 186 59 0
7047 2.636072 1.311932 1.317674 191 191 57 0
7048 2.875205 1.812348 0.889914 177 170 30 0
7049 2.857734 1.886851 0.895691 190 184 34 0
7050 2.608362 1.103838 1.393058 159 159 63 0
7051 2.676774 1.124551 1.348469 168 165 60 0
7052 2.630321 1.358629 1.286915 200 195 51 0
7053 2.946998 1.493650 0.766230 175 166 27 0
7054 2.959189 1.550185 0.738294 165 158 18 0
7055 2.322916 1.913777 1.287455 178 177 71 0
7056 2.401218 1.465948 1.406878 187 185 66 0
7057 2.471861 1.403924 1.388692 187 185 66 0
7058 2.495083 2.202535 1.049072 198 191 38 0
7059 2.473882 2.154975 1.105694 189 183 37 0
7060 2.526705 2.143908 1.082393 188 183 40 0
7061 2.240893 1.517926 1.475786 171 172 70 0
7062 2.786699 2.075566 0.851913 212 209 36 0
7063 2.857150 1.986232 0.829554 206 201 37 0
7064 2.425041 2.193045 1.106278 199 187 41 0
7065 2.678709 1.820478 1.084485 167 162 32 0
7066 2.598106 1.863603 1.137700 160 154 34 0
7067 2.770282 1.263205 1.210939 204 198 52 0
7068 2.526792 1.273748 1.412594 168 170 63 0
7069 2.343053 1.453828 1.449392 179 177 64 0
7070 2.424248 1.371386 1.438160 177 175 56 0
7071 2.583676 1.374558 1.314938 200 199 57 0
7072 2.540125 1.361697 1.364145 188 187 61 0
7073 2.363322 1.605317 1.355806 193 190 75 0
7074 2.970403 1.803843 0.679214 190 185 42 0
7075 2.754711 1.775550 1.024926 169 165 40 0
7076 2.822835 1.849922 0.951660 183 176 34 0
7077 2.742964 2.100182 0.899961 211 206 42 0
7078 2.944009 1.877510 0.699082 200 194 38 0
7079 2.350286 1.681188 1.334309 188 186 75 0
7080 2.604511 1.612558 1.164163 170 161 22 0
7081 2.368271 1.523538 1.392238 191 188 73 0
7082 2.903708 1.917890 0.784904 200 194 38 0
7083 2.557012 1.311226 1.379725 180 180 60 0
7084 2.580382 2.090066 1.076851 194 187 54 0
7085 2.429808 1.995059 1.210486 169 161 52 0
7086 2.689740 2.142749 0.916979 210 205 41 0
7087 2.397750 2.102422 1.185800 193 182 38 0
7088 2.420048 2.131805 1.156339 187 179 36 0
7089 2.536848 1.190497 1.428009 162 162 64 0
7090 2.797312 1.275160 1.152208 213 203 43 0
7091 2.677776 1.400752 1.192048 217 203 32 0
7092 2.296513 1.860954 1.321796 177 175 75 0
7093 2.257980 1.993534 1.306416 166 168 58 0
7094 2.637310 2.112355 1.013031 202 196 48 0
7095 2.573577 2.155524 1.030825 205 198 56 0
7096 2.379041 2.169501 1.152592 186 177 46 0
7097 2.465081 1.757259 1.222328 164 154 39 0
7098 2.758980 2.112233 0.844454 209 206 33 0
7099 2.694211 2.106552 0.958239 205 201 42 0
7100 2.525363 1.896872 1.181138 159 154 36 0
7101 2.539828 1.124246 1.429743 156 156 68 0
7102 2.898305 1.967706 0.648873 222 212 39 0
7103 2.867790 2.001838 0.628125 220 215 27 0
7104 2.848968 2.033408 0.690647 225 214 34 0
7105 2.903534 1.888646 0.810697 192 186 36 0
7106 2.493236 1.345376 1.401649 175 174 58 0
7107 2.268969 1.771385 1.368633 177 174 69 0
7108 2.509879 1.063580 1.451292 148 149 69 0
7109 2.372123 1.084467 1.512637 147 150 79 0
7110 2.866936 1.928904 0.857847 199 193 35 0
7111 2.320894 0.935609 1.512550 158 155 114 0
7112 2.552760 0.902026 1.416820 146 144 95 0
7113 2.424388 0.992327 1.488517 154 154 94 0
7114 2.727323 1.265949 1.257663 200 197 58 0
7115 2.226245 1.892986 1.354473 169 170 68 0
7116 2.767354 2.093795 0.636229 225 216 35 0
7117 2.797373 2.073945 0.643592 227 216 30 0
7118 2.829397 1.258386 1.093922 218 206 36 0
7119 2.247332 2.119928 1.262281 176 174 74 0
7120 2.186580 2.098553 1.304098 172 171 65 0
7121 2.802767 1.183883 1.227818 191 190 64 0
7122 2.125139 2.165109 1.312830 164 161 54 0
7123 2.187181 2.186336 1.272424 171 168 65 0
7124 2.922564 1.928843 0.670640 210 206 36 0
7125 2.489445 1.165410 1.452921 158 158 68 0
7126 2.981949 1.663386 0.687649 178 171 31 0
7127 2.819018 2.060421 0.662580 229 218 30 0
7128 2.627620 2.168124 0.960522 209 203 47 0
7129 2.367696 2.058774 1.223330 171 160 36 0
7130 2.550668 2.216485 0.983683 210 203 52 0
7131 2.103903 0.826408 1.506433 159 157 98 0
7132 1.995669 5.298573 1.654193 192 189 46 0
7133 2.027004 5.324776 1.649644 207 205 45 0
7134 2.024930 5.311113 1.619390 202 200 55 0
7135 1.772186 4.943024 1.548303 87 82 0 0
7136 1.792838 5.004204 1.583053 88 88 0 0
7137 1.772256 4.968878 1.527302 88 83 1 0
7138 2.333791 5.368597 2.072960 19 19 17 0
7139 2.308886 5.417586 2.040014 18 18 16 0
7140 2.292278 5.354324 2.049817 19 18 16 0
7141 1.744015 4.931330 1.477006 87 82 0 0
7142 1.883061 5.154273 1.711599 117 115 2 0
7143 1.885579 5.122476 1.746812 108 105 2 0
7144 1.909115 5.177635 1.744720 123 119 9 0
7145 2.194631 5.382932 1.939343 13 12 8 0
7146 2.142584 5.298347 1.940119 12 13 7 0
7147 2.215048 5.340635 1.984646 15 14 10 0
7148 2.246705 5.488639 1.919240 10 10 10 0
7149 2.183399 5.443824 1.865250 9 9 9 0
7150 2.215335 5.443771 1.924695 12 12 10 0
7151 1.844493 4.819785 1.652171 79 75 1 0
7152 1.828416 4.754693 1.596577 77 75 0 0
7153 1.868805 4.769071 1.657617 73 73 1 0
7154 2.021767 5.328592 1.728060 184 183 39 0
7155 2.063445 5.353313 1.755334 6 5 1 0
7156 2.048239 5.347310 1.712976 180 188 43 0
7157 2.071070 5.279211 1.887539 10 11 5 0
7158 2.101054 5.333899 1.872221 13 14 6 0
7159 2.041878 5.283960 1.841252 9 10 2 0
7160 2.143987 5.062447 2.007136 20 21 13 0
7161 2.063698 5.058534 1.955411 16 17 9 0
7162 2.102169 5.021100 1.972551 19 20 12 0
7163 2.074677 5.228619 1.925662 12 13 7 0
7164 2.019109 5.175055 1.902597 12 14 0 0
7165 2.063680 5.172598 1.943613 14 15 7 0
7166 2.066129 5.350508 1.788028 7 5 8 0
7167 2.109837 5.390243 1.799112 9 8 13 0
7168 2.318053 5.520287 1.860553 31 33 32 0
7169 2.349153 5.531214 1.887940 8 10 9 0
7170 2.343114 5.521307 1.849234 8 10 9 0
7171 2.026734 4.993329 1.902344 17 19 5 0
7172 2.008478 4.993773 1.889640 87 88 30 0
7173 2.026028 4.967702 1.894807 45 45 19 0
7174 1.911267 4.765367 1.706536 80 76 2 0
7175 1.882956 4.849525 1.719947 89 84 3 0
7176 2.148561 5.382147 1.884507 11 10 6 0
7177 2.071810 5.332461 1.830917 11 14 5 0
7178 2.336779 5.506223 2.000061 11 11 11 0
7179 2.346025 5.513944 1.964962 20 20 20 0
7180 2.303859 5.513290 1.952640 10 10 10 0
7181 2.268001 5.507748 1.898562 9 9 9 0
7182 2.246905 5.495923 1.859150 8 10 9 0
7183 2.214333 5.474000 1.854357 10 8 9 0
7184 2.125897 5.385232 1.682408 83 81 32 0
7185 2.075984 5.350394 1.639039 209 208 68 0
7186 2.085369 5.364284 1.705900 115 118 47 0
7187 1.880507 5.032158 1.768282 92 91 1 0
7188 1.911537 5.022093 1.809882 93 89 0 0
7189 1.924442 5.069636 1.830185 95 90 8 0
7190 2.006169 5.299358 1.768134 153 159 35 0
7191 2.003302 5.033961 1.907930 40 41 9 0
7192 1.958531 5.044976 1.867951 93 92 2 0
7193 1.971924 4.993956 1.865441 95 92 11 0
7194 1.857494 5.130144 1.591898 131 129 18 0
7195 1.870365 5.145733 1.616009 133 132 16 0
7196 1.878416 5.170010 1.581668 146 144 23 0
7197 1.977152 5.281738 1.727850 158 155 22 0
7198 1.970155 5.261270 1.748868 151 146 28 0
7199 1.842942 4.994288 1.703443 85 82 1 0
7200 1.873014 4.954422 1.744921 91 87 0 0
7201 1.938559 5.113205 1.840485 98 92 4 0
7202 1.966068 5.098557 1.881065 95 97 22 0
7203 2.148736 5.366044 1.899268 11 10 6 0
7204 2.131979 5.335563 1.904392 11 12 6 0
7205 1.994754 5.297902 1.716252 183 182 42 0
7206 2.275539 5.510110 1.851691 8 10 9 0
7207 2.293481 5.505788 1.815337 7 9 8 0
7208 2.258059 5.489153 1.796846 7 12 8 0
7209 1.939561 5.222981 1.756789 133 130 15 0
7210 1.969580 5.255100 1.789169 141 142 23 0
7211 2.027718 5.327817 1.681615 199 197 50 0
7212 2.287032 5.488238 1.977902 11 11 9 0
7213 2.052910 4.992492 1.929993 16 17 12 0
7214 2.028677 5.015384 1.916800 17 18 10 0
7215 1.808854 4.987613 1.634900 85 83 0 0
7216 1.817202 4.932637 1.647108 84 81 0 0
7217 1.787357 5.013920 1.531328 103 101 1 0
7218 1.805490 5.047468 1.588726 103 96 6 0
7219 1.811355 5.066656 1.553208 113 110 5 0
7220 1.978076 5.138858 1.876813 85 91 45 0
7221 1.980202 5.283655 1.700437 182 180 43 0
7222 1.968953 5.268650 1.629341 182 179 46 0
7223 1.957912 5.254874 1.693056 166 161 33 0
7224 1.845644 4.684834 1.573041 82 79 2 0
7225 1.802685 4.673053 1.515687 80 78 1 0
7226 1.896855 5.089616 1.787583 92 88 0 0
7227 1.742394 4.870403 1.489877 85 80 0 0
7228 2.326950 5.512105 1.807695 6 6 6 0
7229 2.282510 5.482339 1.752702 8 10 9 0
7230 2.135857 5.396821 1.850671 7 12 8 0
7231 2.369683 5.502319 2.028590 12 14 13 0
7232 2.367609 5.510946 1.998440 28 28 28 0
7233 1.735031 4.698968 1.434893 82 79 0 0
7234 1.762357 4.775013 1.511269 80 78 1 0
7235 1.722274 4.772495 1.438073 82 79 0 0
7236 1.850759 5.058081 1.714754 89 87 2 0
7237 2.331525 5.476997 2.030463 15 15 13 0
7238 1.896558 5.185573 1.615922 149 144 24 0
7239 1.915441 5.198609 1.565870 152 146 24 0
7240 2.403893 5.487384 2.030089 12 11 17 0
7241 2.378414 5.481807 2.060230 13 15 14 0
7242 2.412746 5.455169 2.046819 17 22 16 0
7243 1.779541 4.852584 1.561713 81 78 1 0
7244 1.832599 4.874412 1.656842 82 79 0 0
7245 1.874556 5.160956 1.662619 131 128 11 0
7246 2.147394 5.130772 2.011894 18 19 13 0
7247 2.049738 5.342674 1.670853 212 207 63 0
7248 1.918134 5.215174 1.660841 152 149 20 0
7249 1.949712 5.244191 1.625603 171 168 37 0
7250 2.390735 5.443013 2.085395 18 20 19 0
7251 2.356298 5.452171 2.061824 17 17 15 0
7252 2.123980 4.916064 1.937321 33 35 24 0
7253 2.166869 4.973688 1.991800 26 28 17 0
7254 2.101951 4.971353 1.957276 20 21 13 0
7255 2.066094 5.123905 1.956222 16 17 9 0
7256 1.930124 4.981714 1.822665 92 87 3 0
7257 1.981448 5.179613 1.868631 70 72 35 0
7258 1.782826 4.917362 1.576422 85 82 1 0
7259 1.943621 4.680085 1.671821 94 92 18 0
7260 1.894667 4.683885 1.623389 87 87 13 0
7261 1.916565 4.597540 1.562942 95 92 21 0
7262 1.964901 4.879779 1.820618 97 94 15 0
7263 1.955655 4.941630 1.837653 95 90 6 0
7264 1.920086 4.909006 1.787374 90 86 0 0
7265 1.898998 5.185782 1.701953 135 130 13 0
7266 1.921009 5.215208 1.714867 143 139 16 0
7267 1.840581 5.104935 1.622352 117 115 6 0
7268 2.127030 5.185921 1.985866 14 15 9 0
7269 2.168995 5.257226 1.985413 16 15 10 0
7270 2.107903 5.214738 1.960030 13 14 8 0
7271 1.945190 5.214128 1.806946 122 121 13 0
7272 1.938419 5.171927 1.816827 106 99 8 0
7273 1.956971 5.196587 1.843099 106 105 22 0
7274 1.947255 5.155170 1.847325 102 98 11 0
7275 2.270154 5.444991 1.989683 13 13 11 0
7276 2.315291 5.524400 1.910997 9 9 9 0
7277 2.376837 5.514920 1.974181 14 14 14 0
7278 1.984777 5.212655 1.856257 60 61 27 0
7279 1.982302 5.240949 1.833043 134 134 70 0
7280 1.804523 4.805076 1.586800 81 78 1 0
7281 1.932538 4.823863 1.773005 90 87 6 0
7282 2.218028 5.470322 1.803164 7 13 9 0
7283 1.778338 4.726826 1.515469 79 77 0 0
7284 2.050732 4.927549 1.899556 21 20 15 0
7285 1.994981 4.937639 1.869171 96 93 12 0
7286 2.013959 4.874717 1.850846 107 104 25 0
7287 2.006718 5.083238 1.918482 13 13 5 0
7288 2.019780 5.216899 1.874260 12 13 7 0
7289 2.014839 5.129866 1.914822 12 14 3 0
7290 1.978973 5.271578 1.592133 177 173 37 0
7291 2.081169 5.366036 1.746263 6 9 2 0
7292 1.920756 5.138989 1.802092 99 95 4 0
7293 1.998658 5.228741 1.851273 25 30 8 0
7294 1.819807 5.056330 1.643937 89 84 0 0
7295 2.125618 5.250674 1.954226 14 13 8 0
7296 1.997333 4.787413 1.801238 102 99 22 0
7297 1.820504 4.614148 1.494486 82 80 3 0
7298 1.778155 4.577158 1.425133 80 78 1 0
7299 1.928834 5.175474 1.783087 111 108 5 0
7300 1.952205 4.749491 1.738595 89 87 10 0
7301 1.850262 5.107445 1.683253 108 106 3 0
7302 1.928747 5.223304 1.599043 162 159 30 0
7303 1.754375 4.632708 1.428340 81 78 1 0
7304 2.163941 5.432095 1.784961 5 9 8 0
7305 2.166346 5.424688 1.738133 12 16 15 0
7306 2.402795 5.505596 1.993796 8 10 9 0
7307 2.114778 5.398251 1.763481 7 12 8 0
7308 2.123056 5.398791 1.730552 10 9 15 0
7309 2.044449 5.328218 1.632060 197 197 49 0
7310 2.011284 5.284980 1.811477 60 66 30 0
7311 1.856815 4.569664 1.495410 91 88 11 0
7312 1.961189 5.245227 1.579071 184 180 46 0
7313 1.835335 5.090915 1.654445 105 103 3 0
7314 1.698067 4.677009 1.355580 81 78 0 0
7315 1.715965 4.622496 1.359274 84 81 0 0
7316 1.856109 5.124402 1.612776 130 129 13 0
7317 2.074912 4.847687 1.867228 92 89 46 0
7318 1.912714 5.149864 1.768213 106 103 0 0
7319 1.988951 4.627559 1.654289 112 105 37 0
7320 1.972307 4.652210 1.666723 104 100 27 0
7321 1.966669 4.604955 1.609744 119 118 53 0
7322 1.967175 5.255144 1.601474 182 178 42 0
7323 2.216991 5.449043 1.732399 11 16 10 0
7324 1.986110 4.679789 1.704837 107 103 29 0
7325 2.019649 5.249567 1.856414 10 12 1 0
7326 2.257240 5.400900 1.998850 16 17 12 0
7327 2.146871 5.014416 1.997281 23 24 16 0
7328 2.380488 5.389981 2.093621 21 23 20 0
7329 2.356002 5.419521 2.072481 20 20 18 0
7330 2.220372 5.166498 2.051010 20 21 15 0
7331 2.208948 5.218833 2.031474 18 17 13 0
7332 2.265457 5.365643 2.021662 17 16 12 0
7333 2.245337 5.306564 2.026586 17 16 12 0
7334 2.019005 4.568688 1.598329 127 115 67 0
7335 2.066068 4.766491 1.808261 123 121 47 0
7336 2.209610 5.109745 2.049721 20 23 14 0
